ply
format ascii 1.0
element vertex 723
property float x
property float y
property float z
property uchar red
property uchar green
property uchar blue
end_header
-204.31520852061632 1680.989642077386 74.52596054878099 255 125 0
-220.4086165374034 1680.9704959226865 74.61389678541674 255 125 0
-239.79856101966257 1723.7152447202147 76.59246210972064 255 125 0
-312.96555214745854 1880.2869022590487 83.89116975048621 255 125 0
-343.49750792141987 1950.0613436642564 87.14481050600823 255 125 0
-359.5266242725814 1951.2333803938457 87.32068297927968 255 125 0
-377.13919721329194 1943.835334571112 87.14481050600823 255 125 0
-391.60233966130335 1936.8964895908225 86.96893803273677 255 125 0
-402.17313591241344 1896.9592751834552 85.34211765497577 255 125 0
-423.7201776545604 1923.9873782323775 86.70512932282956 255 125 0
303.50544211829606 830.7151032865426 31.966604076859163 255 125 0
295.3286908452717 832.596786313395 31.93048362027514 255 125 0
288.4537748562085 833.9461429670303 31.89436316369112 255 125 0
281.21684120516284 838.5226439675814 31.966604076859163 255 125 0
273.3015788148346 841.1357698024212 31.966604076859163 255 125 0
266.9882937698395 844.2091426964688 32.002724533443185 255 125 0
263.4052857499853 861.0223626109146 32.54453138220351 255 125 0
302.20810081442954 1016.3279735477686 38.32380443564697 255 125 0
303.0962813981874 1055.6314894297648 39.6963817858398 255 125 0
301.23387570389366 1081.0836105652138 40.56327274385632 255 125 0
290.77251934792525 1082.9094569351328 40.52715228727229 255 125 0
283.26475681071435 1089.0284182368684 40.671634113608384 255 125 0
274.9280044871467 1099.4056675219315 40.96059776628056 255 125 0
264.08770717681057 1100.004465987274 40.88835685311251 255 125 0
247.99365671783704 1069.91791437513 39.6963817858398 255 125 0
240.49667698022492 1083.9151006075906 40.129827264848046 255 125 0
232.18509727224375 1086.7477983636857 40.16594772143208 255 125 0
221.73300053477487 1087.9085777019773 40.129827264848046 255 125 0
212.98995278121663 1088.635740130108 40.09370680826404 255 125 0
203.63365042861273 1095.5073329012203 40.27430909118414 255 125 0
196.94736118351028 1107.8960037392408 40.671634113608384 255 125 0
187.9877466606832 1118.5726959837675 40.996718222864565 255 125 0
178.06258389132407 1124.2429087507987 41.141200049200656 255 125 0
171.7531817259009 1142.40682064108 41.75524781112903 255 125 0
178.80342271289823 1270.6432840662494 46.3786662538838 255 125 0
183.1495587194154 1379.990420188344 50.31579602154216 255 125 0
168.05920096393368 1364.7936991323277 49.701748259613794 255 125 0
159.0501983122024 1380.9632940766096 50.24355510837412 255 125 0
148.4426091599558 1405.2587680029926 51.07432560980661 255 125 0
136.52671937306204 1397.4297726126879 50.74924150055042 255 125 0
129.49595629120424 1468.3382739732572 53.27767346143194 255 125 0
110.24150279752928 1400.7511049689824 50.78536195713444 255 125 0
99.66022772871075 1407.554839558892 51.002084696638576 255 125 0
84.24870827830982 1373.5200397405952 49.737868716197816 255 125 0
72.81845732672868 1362.1642874931804 49.30442323718955 255 125 0
62.130349257308666 1411.7107469183156 51.07432560980661 255 125 0
53.31510053549293 1475.072976734071 53.34991437459998 255 125 0
39.49075201116526 1478.5069134975436 53.45827574435205 255 125 0
27.877487261480077 1478.7714693144533 53.45827574435205 255 125 0
13.97703667143022 1482.965740274098 53.60275757068813 255 125 0
9.1e-14 1489.027690655597 53.819480310192255 255 125 0
-11.608339369443543 1477.989282701838 53.422155287768014 255 125 0
-26.00353728264424 1504.79258972574 54.39740761553661 255 125 0
-37.645431253649136 1497.5487263022712 54.14456441944846 255 125 0
-51.377805546249846 1486.1411626606844 53.74723939702422 255 125 0
-63.853277608979454 1504.6623375230113 54.43352807212063 255 125 0
-80.10251047269321 1543.9139218968085 55.878346335481496 255 125 0
-92.40463452561806 1546.2298897895216 55.98670770523356 255 125 0
-107.5253078955456 1553.2660290417691 56.275671357905736 255 125 0
-122.15950309996468 1552.183656857521 56.275671357905736 255 125 0
-134.26020195615402 1550.1807349741869 56.239550901321714 255 125 0
-148.959741595831 1549.8412964548727 56.275671357905736 255 125 0
-164.33344910113487 1579.4370151837763 57.395405512010406 255 125 0
-185.64038953614693 1634.4169710844403 59.45427153729964 255 125 0
-209.20264538064853 1721.200700262966 62.668992173277566 255 125 0
-380.6353104178086 1882.6526858859283 69.42351755448962 255 125 0
-413.28474608159263 1949.3702148769448 72.02419042853917 255 125 0
304.96753240684586 834.7169441648801 23.73662363782955 255 125 0
296.4187201339017 835.6698195500345 23.68322290973544 255 125 0
289.84630994401107 837.9720887741119 23.68322290973544 255 125 0
282.253706350581 841.6143325714642 23.709923273782493 255 125 0
274.3092598628346 844.2370931745745 23.709923273782493 255 125 0
268.574536431293 849.2247953995367 23.790024365923653 255 125 0
264.06818335348294 863.18925026128 24.11042873448828 255 125 0
300.8730361769262 1011.8381417598966 28.195584433687287 255 125 0
301.53082114771126 1050.1792643868512 29.18349790342823 255 125 0
304.8112678237403 1093.9223392118315 30.33161355745148 255 125 0
293.19174618728596 1091.9192616742123 30.19811173721622 255 125 0
286.11672861427064 1099.9929956062952 30.358313921498528 255 125 0
280.1022143958549 1120.0967415694572 30.838920474345475 255 125 0
272.33361308310515 1134.35113596295 31.159324842910102 255 125 0
266.1247814533218 1148.1409440243797 31.479729211474726 255 125 0
256.8078782817722 1157.4294527466475 31.666631759804098 255 125 0
242.48808649093075 1134.97118126601 30.99912265862779 255 125 0
219.80229706306784 1078.4357934849083 29.39710081580465 255 125 0
210.74977095933932 1077.185707094087 29.31699972366349 255 125 0
225.798879663553 1214.751726503181 33.00164996215672 255 125 0
220.80035299142497 1242.0772090237836 33.69585942738008 255 125 0
211.7352505662558 1259.876105053764 34.12306525213292 255 125 0
210.01658509512367 1325.9925322512167 35.85858891519132 255 125 0
199.59589376153343 1327.6010849628535 35.85858891519132 255 125 0
187.49275768317747 1332.3929136620752 35.938690007332475 255 125 0
177.15401053021696 1334.8153232745324 35.96539037137953 255 125 0
164.81033526711337 1338.4099521734263 36.01879109947363 255 125 0
153.72163194415472 1334.6976833297388 35.88528927923837 255 125 0
140.29566781984508 1328.13427648816 35.671686366861955 255 125 0
129.76310496889337 1328.20027539588 35.644986002814896 255 125 0
118.20555308777456 1340.3178196904532 35.938690007332475 255 125 0
102.27418520902594 1299.5167364913334 34.81727471735628 255 125 0
92.70017143573331 1309.2542321646304 35.057577993779745 255 125 0
82.13163324781958 1339.0050300812554 35.83188855114427 255 125 0
71.34587402801425 1334.6176948639595 35.69838673090901 255 125 0
58.632558802274325 1332.234799416549 35.618285638767844 255 125 0
48.49247857179047 1341.645124883244 35.85858891519132 255 125 0
36.03264058716326 1349.0375722556691 36.04549146352068 255 125 0
25.47400530782385 1351.277893342489 36.098892191614794 255 125 0
12.690461974261568 1346.4599670507528 35.96539037137953 255 125 0
8.3e-14 1348.519056850044 36.01879109947363 255 125 0
-10.82666804392424 1378.4658448573216 36.819802020885206 255 125 0
-18.670750877691617 1080.453296025914 28.8630935348636 255 125 0
-36.35028394410228 1446.0273028732938 38.63542677608476 255 125 0
-50.633182162287405 1464.6023785530192 39.14273369297876 255 125 0
-62.72783383940722 1478.1419627437351 39.51653878963749 255 125 0
-78.05445554748603 1504.4392475928785 40.23744861890791 255 125 0
-98.39536303787314 1646.4742502030142 44.05560067763639 255 125 0
-116.04851505413308 1676.3887468188739 44.88331196309502 255 125 0
-131.21526982722403 1667.2480829371175 44.6697090507186 255 125 0
-143.3568124050946 1655.211042288321 44.37600504620102 255 125 0
-156.84617703652205 1631.8951668286004 43.78859703716587 255 125 0
-174.6236848447012 1678.3382389897315 45.07021451142438 255 125 0
-196.41291629704304 1729.2605587512376 46.48533380591816 255 125 0
-383.12526580824095 1894.9682043762864 51.63850406699926 255 125 0
306.3945295073294 838.6227325930681 16.8316566658595 255 125 0
297.80872362053174 839.5885462833575 16.793959786428683 255 125 0
290.87866330951164 840.9567164073171 16.775111346713278 255 125 0
283.25794170488314 844.6087267935402 16.793959786428683 255 125 0
274.9762674350304 846.2899313986926 16.775111346713278 255 125 0
269.22556245232744 851.2833205555662 16.8316566658595 255 125 0
262.65300105709287 858.5632853688384 16.92589886443654 255 125 0
260.1763587121128 874.9749285419997 17.208625460167664 255 125 0
293.58298355346574 1022.4983321145836 20.054739857194296 255 125 0
304.329073480049 1092.1918153759784 21.374130637272874 255 125 0
294.02204438650693 1095.0114994621197 21.374130637272874 255 125 0
287.17467206950715 1104.0603229385488 21.506069715280727 255 125 0
281.1225588651617 1124.1769824837036 21.845341630158075 255 125 0
272.8491507332394 1136.4985048185274 22.03382602731216 255 125 0
266.1724003439164 1148.3463859892431 22.22231042446624 255 125 0
256.4206870050769 1155.6843871727556 22.31655262304328 255 125 0
244.4115649235343 1143.9740672237635 22.052674467027565 255 125 0
220.0413017680476 1079.6084437806762 20.77098056637981 255 125 0
210.9794553797884 1078.359671714422 20.714435247233585 255 125 0
225.29112926203456 1212.0201333358623 23.24012616909828 255 125 0
219.61491801465968 1235.408733419141 23.654791842837255 255 125 0
210.9446038952177 1255.171565560613 23.994063757714606 255 125 0
209.11572424765265 1320.304720710985 25.20036389950073 255 125 0
198.73973220684329 1321.9063735763152 25.20036389950073 255 125 0
186.13309480859508 1322.7306461619928 25.181515459785324 255 125 0
174.5548897451775 1315.2315371636314 25.01187950234665 255 125 0
161.41839103267742 1310.8642772421274 24.8987888640542 255 125 0
151.11801439731158 1312.091611145242 24.8987888640542 255 125 0
139.16543585369905 1317.434731463372 24.974182622915837 255 125 0
130.1751969393918 1332.4182745631751 25.238060778931548 255 125 0
117.78752618307104 1335.5778654763892 25.27575765836236 255 125 0
102.21404042613943 1298.7525245661648 24.559516949176853 255 125 0
93.21105976415011 1316.4697819935425 24.87994042433879 255 125 0
81.22815137746566 1324.2754219978408 25.01187950234665 255 125 0
70.66480157635444 1321.87734571479 24.955334183200424 255 125 0
58.46720895681281 1328.477760278195 25.068424821492872 255 125 0
48.356699387142335 1337.8885117649004 25.238060778931548 255 125 0
35.77213185987014 1339.284302573177 25.256909218646957 255 125 0
25.195887114851235 1336.5250124602337 25.20036389950073 255 125 0
12.541965308359702 1330.7044479622518 25.08727326120828 255 125 0
8.2e-14 1337.7623074855223 25.219212339216135 255 125 0
-10.57732512660188 1346.71917138479 25.388848296654807 255 125 0
-23.649242888233875 1368.552480534668 25.80351397039379 255 125 0
-34.89950165583777 1388.3146642985448 26.18048276470196 255 125 0
-37.30806381811383 1079.163439344632 20.356314892640828 255 125 0
-61.806450390602365 1456.4301411153535 27.48102510506512 255 125 0
-87.28950986760074 1682.4377753563613 31.759620920462776 255 125 0
-99.4865653871 1664.7336123751072 31.43919744530084 255 125 0
-114.48118171159518 1653.7476990060784 31.250713048146757 255 125 0
-129.7482907634953 1648.608346609698 31.17531928928512 255 125 0
-142.08839831858475 1640.5658156893055 31.043380211277263 255 125 0
-157.92644750365565 1643.1347659536239 31.118773970138896 255 125 0
-170.61965715657865 1639.8548409047223 31.08107709070808 255 125 0
-186.067118402702 1638.1739816320476 31.08107709070808 255 125 0
-205.32110105370444 1689.2655552676345 32.08004439562471 255 125 0
-303.42894917011694 1915.7749874190808 36.56597304789186 255 125 0
-317.9734245454477 1910.3740374517656 36.50942772874564 255 125 0
-335.9638870014347 1907.2924076600857 36.50942772874564 255 125 0
-348.7591277451925 1892.7957092199103 36.28324645216074 255 125 0
-383.78822624834675 1898.2472597320047 36.50942772874564 255 125 0
-414.3105975303716 1954.2089230027548 37.659182551385534 255 125 0
304.3764429655468 833.0990920339486 8.35965429019886 255 125 0
296.5112670063467 835.9307296172569 8.35965429019886 255 125 0
290.26367831189623 839.1787387504131 8.369078928632003 255 125 0
282.9777356933009 843.7732182063564 8.387928205498293 255 125 0
275.32191360282764 847.3537209190099 8.397352843931436 255 125 0
269.86448815588005 853.3035848631386 8.435051397664013 255 125 0
265.61325792057823 868.2398085687283 8.557571697294886 255 125 0
297.83190111784853 1001.6107831168026 9.848747162635634 255 125 0
304.93649161416954 1062.0406206873306 10.414225468624284 255 125 0
304.90643498966807 1094.2638800266157 10.706389260051752 255 125 0
293.02397229477964 1091.2944298117332 10.649841429452888 255 125 0
286.45777940153806 1101.3041858990027 10.72523853691804 255 125 0
278.49154778900714 1113.655869897035 10.81948492124948 255 125 0
271.7183351954671 1131.7883191190297 10.970279136179787 255 125 0
265.9820788140421 1147.525282671526 11.102224074243807 255 125 0
257.97105991899053 1162.6718958321878 11.22474437387468 255 125 0
250.2940799246589 1171.5073167794735 11.29071684290669 255 125 0
220.47002634174808 1081.7119337441707 10.40480083019114 255 125 0
210.43157133803865 1075.5593229584952 10.329403722725989 255 125 0
221.48356468097023 1191.536215720717 11.422661780970708 255 125 0
219.46916826181405 1234.5888414045778 11.81849659516276 255 125 0
211.3041715598856 1257.3110803917689 12.016414002258788 255 125 0
210.08215577872744 1326.4065292541386 12.65728941571259 255 125 0
198.32021845303487 1319.1160009678572 12.572467669814294 255 125 0
184.90384090701735 1313.99511307905 12.506495200782284 255 125 0
174.3150336188253 1313.4242756069902 12.487645923915997 255 125 0
162.4175843652503 1318.9786366862327 12.525344477648574 255 125 0
154.2272741013018 1339.0879529827644 12.704412607878313 255 125 0
141.49496012131456 1339.4875936494232 12.694987969445169 255 125 0
129.90085035177006 1329.6101788928345 12.591316946680582 255 125 0
114.3771778623092 1296.9083570965731 12.27087923995368 255 125 0
102.9337618059378 1307.8974517708848 12.365125624285122 255 125 0
93.294104770129 1317.642671146324 12.44994737018342 255 125 0
81.1777556841378 1323.453813024635 12.49707056234914 255 125 0
71.2613907629916 1333.0373251235196 12.581892308247438 255 125 0
58.78276336256608 1335.6477110536916 12.600741585113726 255 125 0
48.36314332358895 1338.0667966489336 12.619590861980017 255 125 0
35.67010208414176 1335.4643771193803 12.591316946680582 255 125 0
25.086159062874184 1330.7044479622518 12.54419375451486 255 125 0
12.553060850462034 1331.8816866856187 12.553618392948003 255 125 0
8.3e-14 1359.9395984681719 12.817508269076042 255 125 0
-8.599639521321835 1094.9175970052736 10.319979084292845 255 125 0
-18.76296586011968 1085.789663179011 10.235157338394544 255 125 0
-26.787491979794066 1065.6160165859255 10.046664569731664 255 125 0
-36.65660240031787 1060.3194342615357 9.999541377565942 255 125 0
-45.91584746829297 1081.9780748619887 10.206883423095112 255 125 0
-74.76293638117795 1440.9977619881847 13.599753259027006 255 125 0
-87.21147538664218 1459.3314574290544 13.778821389256745 255 125 0
-116.43003213048732 1681.8999843665595 15.889940398281034 255 125 0
-131.33469303592955 1668.7654986771809 15.776844737083303 255 125 0
-141.84848519065784 1637.795756479197 15.49410558408898 255 125 0
-162.0612067504931 1686.1545816635264 15.965337505746186 255 125 0
-178.61053453969282 1716.6565364312253 16.2669259356068 255 125 0
-197.48990204152295 1738.742567395974 16.493117258002258 255 125 0
-333.40662817594966 1892.774655809428 18.11415506850305 255 125 0
-362.2142337948444 1965.819653173822 18.83985222785515 255 125 0
311.2533205817449 851.921575279578 5.6e-14 255 125 0
300.2017406870661 846.3349897578709 5.5e-14 255 125 0
293.2185626004834 847.721578436285 5.5e-14 255 125 0
287.123870350667 856.136019026681 5.5e-14 255 125 0
280.27841389807736 862.6082602797042 5.6e-14 255 125 0
273.796467629602 865.7363884656531 5.6e-14 255 125 0
267.67282534575725 874.9721473117986 5.6e-14 255 125 0
264.2128563096679 888.5496984191074 5.7e-14 255 125 0
257.7586723939287 897.7285039507875 5.7e-14 255 125 0
256.336776748124 919.9545950134618 5.8e-14 255 125 0
293.8149612160962 1094.2402700346863 6.9e-14 255 125 0
288.73608632276614 1110.0632740772087 7e-14 255 125 0
283.355901569036 1133.1078647004435 7.2e-14 255 125 0
275.93242007768026 1149.3412459100537 7.2e-14 255 125 0
268.02610377362595 1156.3438103332112 7.3e-14 255 125 0
259.9320077263886 1171.5098596936043 7.3e-14 255 125 0
252.18561971571097 1180.3607131756812 7.4e-14 255 125 0
242.64762632500447 1190.5238886468599 7.4e-14 255 125 0
230.21775568930224 1176.6906071543958 7.3e-14 255 125 0
216.01089189667843 1162.0943570046284 7.2e-14 255 125 0
205.8271173549246 1157.8476574063454 7.2e-14 255 125 0
194.57420820021244 1157.763739932833 7.2e-14 255 125 0
184.279799817392 1163.4968652210723 7.2e-14 255 125 0
176.62285146954437 1174.7971605084715 7.3e-14 255 125 0
166.2396983341195 1181.3608097011604 7.3e-14 255 125 0
160.11382501530787 1206.4213870115896 7.5e-14 255 125 0
148.12554952714595 1202.9143035051504 7.4e-14 255 125 0
138.10132623900128 1199.0734021280887 7.4e-14 255 125 0
127.42465456616048 1206.2885050470695 7.4e-14 255 125 0
119.59965752455116 1224.1715247137593 7.5e-14 255 125 0
108.67193013326948 1232.2172745101043 7.6e-14 255 125 0
96.4262286495215 1225.2114031580143 7.5e-14 255 125 0
86.30617680788554 1218.948417220682 7.5e-14 255 125 0
75.61009129797348 1232.683298375504 7.6e-14 255 125 0
68.16841782193721 1275.1792292896139 7.8e-14 255 125 0
56.93871322163504 1293.7476504081715 7.9e-14 255 125 0
46.99271401581217 1300.1510238543167 8e-14 255 125 0
34.790574353309225 1302.5354566905912 8e-14 255 125 0
24.521820069746035 1300.7688804474324 8e-14 255 125 0
12.280303878386825 1302.9421300029617 8e-14 255 125 0
8e-14 1311.0 8e-14 255 125 0
-10.469249884651772 1332.9588871405047 8.2e-14 255 125 0
-25.433068548824604 1471.7802685945312 9e-14 255 125 0
-26.3363400246176 1047.6690303688983 6.4e-14 255 125 0
-36.243622801821424 1048.3736928243663 6.4e-14 255 125 0
-44.30673289108512 1044.060301620801 6.4e-14 255 125 0
-54.19646901405114 1044.5950137476289 6.4e-14 255 125 0
-62.63756245967923 1048.1300185421223 6.4e-14 255 125 0
-72.30584692298294 1044.5002941602029 6.4e-14 255 125 0
-82.06821413132573 1042.7755310848515 6.4e-14 255 125 0
-90.08296589303168 1040.1062730586307 6.4e-14 255 125 0
-100.07293464700696 1041.2019053724096 6.4e-14 255 125 0
-108.35083167719255 1041.3784601550296 6.4e-14 255 125 0
-118.3863477322823 1042.2982647354888 6.4e-14 255 125 0
-126.20683379958705 1038.3582402534703 6.4e-14 255 125 0
-135.98737956769267 1037.1226699857218 6.4e-14 255 125 0
-143.57748289339284 1032.0608055759103 6.4e-14 255 125 0
-153.2979061358602 1030.6618029083843 6.4e-14 255 125 0
-162.06610578167934 1023.2451208565626 6.3e-14 255 125 0
-170.75432043161757 1025.8864274635553 6.4e-14 255 125 0
-179.8949165099663 1021.2770530144464 6.3e-14 255 125 0
-187.9103768813416 1019.8326775801568 6.3e-14 255 125 0
-199.22778246782465 1026.851640059533 6.4e-14 255 125 0
-206.6919170760844 1022.3147516373874 6.4e-14 255 125 0
-215.48808616772203 1016.4083257823957 6.4e-14 255 125 0
-223.03405778674636 1012.731360760186 6.3e-14 255 125 0
-231.4474252997612 1005.7117327157476 6.3e-14 255 125 0
-243.71695986556497 1015.1541968951744 6.4e-14 255 125 0
307.8121472483519 842.502849074457 -7.044949097173773 255 125 0
301.1953519646648 849.136199332889 -7.076364700728616 255 125 0
296.4782985260036 857.1457719783309 -7.123488106060883 255 125 0
288.38684208223845 859.901904423427 -7.123488106060883 255 125 0
279.96076198811505 861.630628225861 -7.115634205172172 255 125 0
273.4864944418884 864.7562623508948 -7.123488106060883 255 125 0
266.2019217636196 870.16404001107 -7.147049808727016 255 125 0
263.6346864192932 886.6053090017908 -7.264858322057681 255 125 0
257.198793767406 895.7785443350193 -7.319835628278658 255 125 0
264.64949374675103 949.7877008867079 -7.743946276269052 255 125 0
294.843166346674 1098.0695626448305 -8.929885310464414 255 125 0
288.2237334524804 1108.0935026090299 -8.992716517574102 255 125 0
280.19346947564 1120.4616602036756 -9.071255526461211 255 125 0
271.7220227226469 1131.803678775144 -9.141940634459612 255 125 0
264.8567169805606 1142.6701391903125 -9.212625742458012 255 125 0
256.8915442516132 1157.8065340820583 -9.314726454011254 255 125 0
252.17784171724875 1180.3243080712891 -9.479658372674184 255 125 0
234.85169348218076 1152.2740016636799 -9.236187445124145 255 125 0
224.8345932244312 1149.1761494174843 -9.196917940680589 255 125 0
214.17678266098892 1152.227224962304 -9.2047718415693 255 125 0
205.82076916185923 1157.8119466576163 -9.236187445124145 255 125 0
195.5625931401828 1163.6448700948324 -9.267603048678987 255 125 0
185.3691236759782 1170.3745853831924 -9.306872553122542 255 125 0
175.57672906539872 1167.838935003056 -9.2754569495677 255 125 0
165.8165462038971 1178.3537340856735 -9.346142057566098 255 125 0
158.0039219064413 1190.5237452257193 -9.43253496734192 255 125 0
147.14328474219755 1194.937419278116 -9.456096670008051 255 125 0
138.8979612085954 1205.9902350743002 -9.534635678895162 255 125 0
128.89136764127295 1220.1734092575953 -9.636736390448403 255 125 0
119.40150379952924 1222.1433069687544 -9.644590291337115 255 125 0
106.99945718175316 1213.253315192533 -9.566051282450006 255 125 0
94.5402944167768 1201.2483366778 -9.463950570896763 255 125 0
86.30351492212358 1218.9108219806153 -9.597466886004849 255 125 0
76.4036304552558 1245.6204929879787 -9.801668309111337 255 125 0
66.93857435052098 1252.1734019558492 -9.8487917144436 255 125 0
55.53002070601529 1261.7396802748015 -9.919476822442 255 125 0
45.6909683182477 1264.1355257727012 -9.935184624219422 255 125 0
34.122012816433546 1277.5049671701647 -10.037285335772664 255 125 0
24.483368042290767 1298.7291786405658 -10.202217254435595 255 125 0
12.44013903672918 1319.9006648830696 -10.367149173098529 255 125 0
-8.22278061273778 1046.935417104149 -8.223034230480424 255 125 0
-18.037571083523307 1043.8119632767543 -8.19947252781429 255 125 0
-26.511432992467675 1054.6342912851999 -8.285865437590111 255 125 0
-36.03520750862495 1042.3451257640538 -8.19161862692558 255 125 0
-44.220571407536845 1042.0299604371564 -8.19161862692558 255 125 0
-54.039363057740616 1041.5669179772294 -8.19161862692558 255 125 0
-62.51632460673839 1046.1013151880811 -8.230888131369134 255 125 0
-71.889269465925 1038.4825888852613 -8.175910825148158 255 125 0
-81.75185625085584 1038.7558230856987 -8.183764726036868 255 125 0
-89.56248529506011 1034.0967558364919 -8.152349122482024 255 125 0
-100.26118630381077 1043.1605566745327 -8.230888131369134 255 125 0
-108.34748988235462 1041.3463415906533 -8.223034230480424 255 125 0
-117.8184318979096 1037.2982144761377 -8.19947252781429 255 125 0
-127.40947035895795 1048.2528516929417 -8.293719338478823 255 125 0
-135.5931762606911 1034.116235215272 -8.19161862692558 255 125 0
-144.12419878929546 1035.9906979000805 -8.215180329591712 255 125 0
-153.8816355647658 1034.58636809503 -8.215180329591712 255 125 0
-163.15611476290755 1030.1271667128015 -8.19161862692558 255 125 0
-170.5848721835533 1024.8683878765792 -8.160203023370736 255 125 0
-180.40978095673364 1024.1999774366457 -8.168056924259446 255 125 0
-187.72338110793547 1018.8178086652308 -8.136641320704603 255 125 0
-195.9838100481739 1010.1316908729073 -8.081664014483625 255 125 0
-203.9112396305513 1008.5612986125776 -8.081664014483625 255 125 0
-215.68883311639064 1017.3552035129972 -8.168056924259446 255 125 0
-221.95183087331503 1007.817290032304 -8.105225717149759 255 125 0
-231.6645507599685 1006.6552110133308 -8.11307961803847 255 125 0
-240.9081850943052 1003.4548079862104 -8.105225717149759 255 125 0
-250.2281952797746 1007.3546493121536 -8.152349122482024 255 125 0
-258.20981540888533 999.1426307302592 -8.105225717149759 255 125 0
311.20685853718766 851.7944054935145 -15.67105514523364 255 125 0
302.83093217272244 853.7472610657976 -15.653777245404276 255 125 0
296.44318501487817 857.0442556186172 -15.67105514523364 255 125 0
288.67060605525535 860.7480220168726 -15.688333045063004 255 125 0
280.5455464695264 863.4304097970963 -15.688333045063004 255 125 0
273.7555969212836 865.6071564864391 -15.688333045063004 255 125 0
268.5103535538749 877.7098695805583 -15.861112043356648 255 125 0
264.1734161858501 888.4170610046627 -16.01661314182093 255 125 0
257.7201957123004 897.594496378843 -16.13755844062648 255 125 0
257.37201394089806 923.6699074415227 -16.569505936360596 255 125 0
294.0303883228348 1095.042574364169 -19.59313840649939 255 125 0
286.93112771526035 1103.1240020002783 -19.696805805475577 255 125 0
280.88797371502204 1123.2389032797998 -20.00780800240414 255 125 0
274.25735691144115 1142.3641056888307 -20.301532299503336 255 125 0
267.3087917491088 1153.24911430193 -20.457033397967617 255 125 0
259.89320662218745 1171.334983669154 -20.733479795237447 255 125 0
250.47673733267897 1172.3622490656223 -20.716201895408087 255 125 0
235.82227958458927 1157.0360756159648 -20.405199698479525 255 125 0
226.15182118345783 1155.9087741979968 -20.35336599899143 255 125 0
215.06503181707689 1157.0058234988887 -20.336088099162065 255 125 0
207.54636203271585 1167.5189944404071 -20.491589197626347 255 125 0
196.036565764146 1166.4651221869326 -20.43975549813825 255 125 0
183.9394693979885 1161.3481035200728 -20.318810199332702 255 125 0
174.66403312823613 1161.768188287866 -20.301532299503336 255 125 0
166.49353332562163 1183.164655076822 -20.647090296090628 255 125 0
158.64293225634663 1195.3385434017907 -20.83714719421364 255 125 0
147.98124066977815 1201.742384216382 -20.92353669336046 255 125 0
139.68231026546303 1212.800394814885 -21.096315691654105 255 125 0
128.14086785928583 1213.0686675328975 -21.079037791824742 255 125 0
117.44294285688396 1202.0963052880788 -20.871702993872365 255 125 0
105.84488958916016 1200.1618192520637 -20.819869294384272 255 125 0
94.37220273625417 1199.1125293706311 -20.785313494725543 255 125 0
86.08144420564231 1215.7743981651047 -21.061759891995376 255 125 0
75.90487270834012 1237.4891664149764 -21.42459578841203 255 125 0
67.0373938995382 1254.021950600233 -21.701042185681864 255 125 0
55.83117487369458 1268.5824323287354 -21.942932783292967 255 125 0
46.40785818715368 1283.969772773955 -22.20210128073344 255 125 0
34.70529188815573 1299.3425391615983 -22.461269778173904 255 125 0
24.876226494802506 1319.5684983971962 -22.8068277747612 255 125 0
12.570590926613685 1333.7416304611424 -23.048718372372296 255 125 0
9.8e-14 1598.7613107898476 -27.6273618271539 255 125 0
-8.488799514009218 1080.805299140011 -18.67740971554307 255 125 0
-18.173637362972386 1051.6859508347156 -18.176350620491498 255 125 0
-26.33240869241073 1047.512640566922 -18.10723902117404 255 125 0
-35.99639418234237 1041.2224214905832 -18.003571622197853 255 125 0
-44.596866254425024 1050.8971118993547 -18.176350620491498 255 125 0
-54.24018422102771 1045.4375905439297 -18.089961121344675 255 125 0
-62.27033679804478 1041.9851395841356 -18.038127421856583 255 125 0
-71.8117055182726 1037.362132247426 -17.969015822539124 255 125 0
-81.74217394112776 1038.6327976759749 -18.003571622197853 255 125 0
-90.3283393000873 1042.939377157616 -18.089961121344675 255 125 0
-100.53628505599713 1046.0228025550232 -18.15907272066213 255 125 0
-107.81730022276888 1036.250597674866 -18.003571622197853 255 125 0
-117.91731756900624 1038.1688246889323 -18.055405321685942 255 125 0
-125.94671715810136 1036.2181480731797 -18.038127421856583 255 125 0
-135.05716664194588 1030.0282990501785 -17.951737922709757 255 125 0
-143.28051105631613 1029.9261185258922 -17.969015822539124 255 125 0
-152.83373188374455 1027.5410383551803 -17.951737922709757 255 125 0
-162.51114685757665 1026.0549996236016 -17.951737922709757 255 125 0
-171.3854805931345 1029.678417274526 -18.038127421856583 255 125 0
-180.21496366300303 1023.0939849190282 -17.951737922709757 255 125 0
-188.06350545216205 1020.6637414255156 -17.934460022880394 255 125 0
-197.10322603428912 1015.9013386951776 -17.8826263233923 255 125 0
-205.2740763337221 1015.3019979366416 -17.899904223221665 255 125 0
-214.00433956517475 1009.4098302878156 -17.830792623904205 255 125 0
-222.7857204573508 1011.6037347643088 -17.899904223221665 255 125 0
-232.9825371866244 1012.3822758581056 -17.951737922709757 255 125 0
311.15502344749666 851.6525293163166 -22.79299656710703 255 125 0
303.4488817976037 855.4893974979443 -22.81812666255037 255 125 0
296.0670241902869 855.956740404231 -22.767866471663687 255 125 0
288.62252463819925 860.6046545116308 -22.81812666255037 255 125 0
280.498818374805 863.286595509249 -22.81812666255037 255 125 0
274.0114425019552 866.416132697612 -22.843256757993704 255 125 0
266.12606029840293 869.9160631421701 -22.86838685343704 255 125 0
263.2746273071581 885.3944276693333 -23.220208189643763 255 125 0
257.40138371540945 896.4841297931047 -23.4463790486338 255 125 0
255.4508307332873 916.7750664353844 -23.923850862057208 255 125 0
294.24065704189826 1095.8256675700957 -28.522658328187955 255 125 0
290.1548126672935 1115.517652956838 -28.97500004616803 255 125 0
282.78136950796335 1130.8103766533652 -29.301691286931412 255 125 0
275.14516274441 1146.0620831207812 -29.628382527694804 255 125 0
266.58707851924373 1150.1354301702722 -29.67864271858148 255 125 0
257.25141922860786 1159.4284854819416 -29.85455338668484 255 125 0
252.10597679440707 1179.9879426128884 -30.332025200108248 255 125 0
237.579822855171 1165.6592683528904 -29.904813577571517 255 125 0
224.38662550605156 1146.8864936741757 -29.377081573261428 255 125 0
213.2022840864832 1146.9846222194578 -29.326821382374757 255 125 0
204.71230823657092 1151.5764763164639 -29.40221166870477 255 125 0
194.67844336165373 1158.3839644294867 -29.527862145921453 255 125 0
183.4396769749398 1158.1925383520263 -29.477601955034775 255 125 0
175.08081726474595 1164.540404997328 -29.603252432251463 255 125 0
166.18719805584465 1180.9877232971671 -29.98020386390153 255 125 0
158.48498563758326 1194.1484514227623 -30.281765009221576 255 125 0
146.97917506526355 1193.6046993094294 -30.2315048183349 255 125 0
137.48580800078025 1193.729126529328 -30.206374722891564 255 125 0
126.96434847985496 1201.9309343508492 -30.382285390994923 255 125 0
118.20101966823202 1209.8556589953216 -30.55819605909829 255 125 0
106.70549442469816 1209.92010866108 -30.53306596365495 255 125 0
94.7486555455466 1203.8958158390087 -30.357155295551586 255 125 0
85.29045485592249 1204.6028314066143 -30.357155295551586 255 125 0
75.76982305442384 1235.2874305094088 -31.11105815885171 255 125 0
67.50651153005984 1262.7974081749903 -31.789570735821815 255 125 0
56.21746364236601 1277.3595921655308 -32.141392072028545 255 125 0
46.797327966335445 1294.7452630338514 -32.56860369456528 255 125 0
34.72620325351641 1300.1254464672809 -32.694254171781964 255 125 0
24.70250068793655 1310.3531496727085 -32.94555512621534 255 125 0
12.436593881350236 1319.524523352178 -33.17172598520538 255 125 0
8.2e-14 1333.578708503922 -33.5235473214121 255 125 0
-18.084248117757873 1046.513105604549 -26.311209929174264 255 125 0
-26.2777784080194 1045.3394283049468 -26.286079833730927 255 125 0
-36.02493829785863 1042.0480812199048 -26.210689547400914 255 125 0
-44.250354952552016 1042.731790948296 -26.23581964284425 255 125 0
-54.23114989309816 1045.263460862062 -26.311209929174264 255 125 0
-62.3792369191534 1043.8073925817723 -26.286079833730927 255 125 0
-72.00685909837185 1040.1812399751484 -26.210689547400914 255 125 0
-81.88542747479345 1040.4530064039116 -26.23581964284425 255 125 0
-90.1407758426494 1040.773752094723 -26.26094973828759 255 125 0
-99.85004692699114 1038.8828855536826 -26.23581964284425 255 125 0
-107.79934200856513 1036.0779981925627 -26.185559451957577 255 125 0
-117.89767708048667 1037.9959057038077 -26.26094973828759 255 125 0
-125.68450223209211 1034.0607923980383 -26.185559451957577 255 125 0
-135.29460330881517 1031.839135840172 -26.16042935651424 255 125 0
-142.84340571044737 1026.7841265764039 -26.05990897474089 255 125 0
-153.24949301425482 1030.3363088657322 -26.185559451957577 255 125 0
-162.17130863001935 1023.9093454996174 -26.05990897474089 255 125 0
-170.37212439809605 1023.5902060711531 -26.085039070184227 255 125 0
-180.35836829137 1023.9081038451689 -26.135299261070905 255 125 0
-188.21332984435344 1021.4768727362568 -26.110169165627564 255 125 0
-198.0224271195212 1020.639047112263 -26.135299261070905 255 125 0
-205.43799356768963 1016.1127456848031 -26.05990897474089 255 125 0
-214.59069669491504 1012.1755436000868 -26.009648783854217 255 125 0
-219.30847990928677 995.814619026216 -25.632697352204158 255 125 0
-227.11453297954597 986.8839551442728 -25.45678668410079 255 125 0
308.32378187533584 843.9032279573971 -31.061026595650578 255 125 0
300.35660552874174 846.7715879397915 -31.061026595650578 255 125 0
295.00365313904484 852.8824378156512 -31.199229161148473 255 125 0
286.3168889888864 853.7297899323886 -31.130127878399524 255 125 0
278.25807823837323 856.3903064802648 -31.130127878399524 255 125 0
273.03028114578217 863.3137293088861 -31.302881085271885 255 125 0
266.34355505994046 870.6270126316663 -31.47563429214425 255 125 0
263.77025849792045 887.0612388579715 -31.99389391276133 255 125 0
257.0531609293855 895.2713305579309 -32.20119776100817 255 125 0
297.7632887998042 1068.628189964572 -38.35121192566423 255 125 0
289.2336495828316 1077.1783217324369 -38.558515773911054 255 125 0
281.01625840945064 1080.3839307089947 -38.593066415285534 255 125 0
272.03382168169946 1087.8321612685809 -38.7658196221579 255 125 0
263.4024569717348 1097.1501934656178 -39.0076741117792 255 125 0
255.45442349563783 1102.105866825971 -39.11132603590262 255 125 0
242.4583605673416 1092.756380617728 -38.69671833940895 255 125 0
231.98918196761477 1085.8308121812274 -38.385762567038704 255 125 0
221.5457251096339 1086.9897314277991 -38.35121192566423 255 125 0
213.3855694954992 1090.6578190541927 -38.42031320841318 255 125 0
203.4623192669181 1094.585606341804 -38.48941449116212 255 125 0
195.2091142657169 1098.117772631382 -38.558515773911054 255 125 0
184.85108150053267 1099.9087773671945 -38.558515773911054 255 125 0
174.32028812787675 1100.6149832059716 -38.52396513253658 255 125 0
165.07645600979663 1097.9969475838232 -38.385762567038704 255 125 0
154.02458657294963 1094.55570559322 -38.21300936016634 255 125 0
145.5547898714123 1096.7223565239367 -38.247560001540805 255 125 0
136.189256336968 1105.9807369791079 -38.52396513253658 255 125 0
128.1848850053054 1112.9732809278553 -38.73126898078343 255 125 0
118.94965870039889 1126.0584261192782 -39.14587667727709 255 125 0
112.23994240397163 1148.8405926099667 -39.905990787515485 255 125 0
103.69031766705292 1175.73140066707 -40.80430746325176 255 125 0
95.19247343714744 1209.5350568352667 -41.94447862860935 255 125 0
49.81646931227867 1378.276078274022 -47.67988509677175 255 125 0
-8.147481749027612 1037.3482651419827 -35.86356574670223 255 125 0
-17.90648463999021 1036.2261526734499 -35.829015105327755 255 125 0
-26.06946495469678 1037.0526445889368 -35.86356574670223 255 125 0
-35.84215334577662 1036.7608908014759 -35.86356574670223 255 125 0
-44.06841211737779 1038.4444224384872 -35.93266702945117 255 125 0
-53.90520025900342 1038.981033820183 -35.96721767082564 255 125 0
-61.646257329877365 1031.5422615592583 -35.72536318120434 255 125 0
-70.67524435194622 1020.9452852973596 -35.379856767459614 255 125 0
-80.29414563396939 1020.2338535414442 -35.379856767459614 255 125 0
-88.21824989404942 1018.576089313157 -35.34530612608514 255 125 0
-97.81404322495085 1017.6994262958198 -35.34530612608514 255 125 0
-105.49366136351252 1013.9177053495168 -35.24165420196172 255 125 0
-115.15757286268924 1013.8714527908484 -35.276204843336195 255 125 0
-123.11686703603468 1012.9357464435157 -35.276204843336195 255 125 0
-132.65795222626983 1011.730427081732 -35.276204843336195 255 125 0
-140.8753072885091 1012.6370806617844 -35.34530612608514 255 125 0
-150.1187268095661 1009.28735117058 -35.276204843336195 255 125 0
-159.3115458316651 1005.8535137998967 -35.20710356058725 255 125 0
-166.8783284572417 1002.599593201214 -35.13800227783831 255 125 0
-176.14668284802133 999.9980469005152 -35.10345163646384 255 125 0
-183.63294046986576 996.6180499417437 -35.034350353714885 255 125 0
-192.8271969637385 993.8620055778385 -34.99979971234042 255 125 0
-200.824995671676 993.2964891756964 -35.034350353714885 255 125 0
-209.76298536593703 989.4043265155934 -34.965249070965946 255 125 0
-218.17204277693577 990.6543958079101 -35.068900995089365 255 125 0
-227.72304947818677 989.5281503926817 -35.10345163646384 255 125 0
-237.03888067606928 987.3379951825226 -35.10345163646384 255 125 0
-244.0632312168215 982.5360823848152 -34.99979971234042 255 125 0
-251.56200752323943 973.418944553049 -34.757945222719115 255 125 0
-258.1687708166041 967.5507010970492 -34.619742657221224 255 125 0
-266.7426350485906 963.1482854825352 -34.55064137447228 255 125 0
-274.0245803735504 960.0625858930259 -34.516090733097805 255 125 0
-283.060652894948 957.4373641461827 -34.516090733097805 255 125 0
-289.6989535932802 952.3162816744115 -34.41243880897439 255 125 0
-298.9611846209159 950.4970357701628 -34.446989450348866 255 125 0
-308.21483027957424 948.5877090647107 -34.481540091723325 255 125 0
-316.2880140877172 948.0338313188304 -34.55064137447228 255 125 0
-324.23321637645984 942.1757937433881 -34.446989450348866 255 125 0
-329.9598673939005 934.8881016674272 -34.2742362434765 255 125 0
-334.9998261553028 921.4050689534241 -33.894179188357306 255 125 0
-341.5284093601349 916.8725155138064 -33.82507790560836 255 125 0
-343.35879031904005 895.8820145766393 -33.16861571949339 255 125 0
-349.2894177229916 890.3665598145207 -33.06496379536997 255 125 0
-357.6652876693513 887.0350895909422 -33.06496379536997 255 125 0
-366.00938771680393 883.6248277817805 -33.06496379536997 255 125 0
-373.71739070710174 882.5635646311683 -33.134065078118915 255 125 0
-383.21368841062184 881.7519623926025 -33.237717002242334 255 125 0
-385.26061188464826 867.7539423279902 -32.823109305748666 255 125 0
-388.86635855136245 854.0792724025482 -32.44305225062947 255 125 0
-393.03466483883574 845.5611206530031 -32.23574840238264 255 125 0
-402.7054436287875 845.428443435913 -32.373950967880525 255 125 0
309.9448533030342 848.3402110608845 -38.3285038598478 255 125 0
302.2697877639722 852.1652710801785 -38.370902647303375 255 125 0
296.22083163431205 856.4014117376825 -38.45570022221455 255 125 0
287.8187212437535 858.2079013703454 -38.41330143475896 255 125 0
279.1001609791073 858.9819706683614 -38.3285038598478 255 125 0
272.6464604170744 862.1000994386162 -38.370902647303375 255 125 0
266.2630229487206 870.363768298998 -38.62529537203689 255 125 0
262.83621556191065 883.9200458793479 -39.134080821503886 255 125 0
256.9754378782656 895.0006347254441 -39.51566990860415 255 125 0
252.88818102518167 907.578097493631 -39.98205657061557 255 125 0
288.8871048080839 1075.8877024721735 -47.274648012976 255 125 0
280.1767742834037 1077.15648342534 -47.232249225520405 255 125 0
270.254901508238 1080.718462813522 -47.274648012976 255 125 0
263.3228141361661 1096.818457180934 -47.86823103735416 255 125 0
255.82838027949575 1103.7192268914944 -48.08022497463208 255 125 0
244.9820331091641 1104.1305368489807 -47.99542739972092 255 125 0
233.79776938115495 1094.2959480271709 -47.48664195025391 255 125 0
222.0773293341769 1089.5979890819515 -47.189850438064816 255 125 0
212.17003699609407 1084.4449808199815 -46.893058925875735 255 125 0
202.48787005582136 1089.343269163988 -47.02025528824249 255 125 0
194.97522481810424 1096.8020648058512 -47.274648012976 255 125 0
186.1198862982516 1107.4584737089635 -47.65623710007625 255 125 0
175.6742244815908 1109.163400910007 -47.65623710007625 255 125 0
166.0663143981053 1104.5809360893595 -47.40184437534273 255 125 0
153.97801542489356 1094.2247537825056 -46.893058925875735 255 125 0
145.77367177034202 1098.371582030062 -47.02025528824249 255 125 0
136.27018381056877 1106.6379417344767 -47.31704680043158 255 125 0
129.0606397430849 1120.5770762096015 -47.86823103735416 255 125 0
119.43846644836393 1130.6858129429327 -48.249820124454416 255 125 0
112.49744950497696 1151.4763264154556 -49.0977958735661 255 125 0
103.74673787596888 1176.3711422817855 -50.11536677250011 255 125 0
94.3014169014952 1198.213110061763 -51.00574130906737 255 125 0
94.90787498042504 1340.4348132195032 -57.02636912776028 255 125 0
86.06294332346192 1403.0978011358716 -59.65509395000648 255 125 0
-8.152865100351601 1038.0336806272344 -44.05234016635161 255 125 0
-17.901070403432996 1035.9128374901438 -43.96754259144045 255 125 0
-26.086690042521774 1037.7378647464363 -44.05234016635161 255 125 0
-35.96939433772043 1040.4414309431768 -44.179536528718366 255 125 0
-44.012726852806885 1037.1322341923656 -44.05234016635161 255 125 0
-53.78536843498655 1036.6713681143995 -44.05234016635161 255 125 0
-61.92562374688338 1036.2169697748764 -44.05234016635161 255 125 0
-70.72287278397697 1021.633305884678 -43.45875714197344 255 125 0
-80.11309066777052 1017.9333320724204 -43.33156077960669 255 125 0
-88.27778484130155 1019.263485331808 -43.416358354517854 255 125 0
-97.59329601635491 1015.40267727965 -43.289161992151115 255 125 0
-105.56515799873972 1014.6048717952808 -43.289161992151115 255 125 0
-115.12275361405564 1013.5648968143748 -43.289161992151115 255 125 0
-123.07964120105264 1012.6294733888784 -43.289161992151115 255 125 0
-132.61784153179295 1011.4245184696016 -43.289161992151115 255 125 0
-140.4197128245679 1009.3621856016712 -43.246763204695526 255 125 0
-149.92635002654478 1007.9939518866344 -43.246763204695526 255 125 0
-159.41966990322305 1006.5361823204688 -43.246763204695526 255 125 0
-166.9919100332734 1003.2819876317984 -43.16196562978436 255 125 0
-176.2667431216278 1000.6796381582988 -43.119566842328766 255 125 0
-183.75845970468555 997.299271593568 -43.03476926741761 255 125 0
-193.14948350464223 995.5231216079264 -43.03476926741761 255 125 0
-200.96226624919268 993.9754404300384 -43.03476926741761 255 125 0
-209.90677406144164 990.0825451116344 -42.94997169250644 255 125 0
-217.8911930564936 989.3791407084199 -42.99237047996201 255 125 0
-227.4301256424501 988.2553043542744 -43.03476926741761 255 125 0
-236.73397373623405 986.0679663761276 -43.03476926741761 255 125 0
-243.50771926754825 980.2997335024554 -42.86517411759528 255 125 0
-251.23595875841863 972.15729917325 -42.61078139286177 255 125 0
-257.83313488836467 966.2928232497238 -42.44118624303943 255 125 0
-265.8619963240228 959.9684950544225 -42.2715910932171 255 125 0
-274.76437363911646 962.6544987593736 -42.48358503049501 255 125 0
-282.9750661722816 957.1478716811667 -42.35638866812826 255 125 0
-290.1929086172676 953.9400411182183 -42.31398988067268 255 125 0
-299.77010048664454 953.068848340204 -42.39878745558385 255 125 0
-308.739116127331 950.2012949871256 -42.39878745558385 255 125 0
-314.61141877759326 943.0084462121182 -42.186793518305926 255 125 0
-322.1845175711551 936.2225652475512 -42.01719836848359 255 125 0
-328.8625393545716 931.7789995341976 -41.93240079357243 255 125 0
-332.1674562349381 913.6147365472056 -41.254020194283086 255 125 0
-337.93765551755894 907.2327215230176 -41.08442504446075 255 125 0
-343.25497174425215 895.6111340966462 -40.702835957360485 255 125 0
-353.19741291812795 900.328350985717 -41.04202625700517 255 125 0
-359.4252580031546 891.3999399036343 -40.78763353227166 255 125 0
-369.33977426458 891.6650921533666 -40.957228682094 255 125 0
-376.7210092677482 889.6568505461233 -40.99962746954959 255 125 0
-381.10666633129 876.903829589829 -40.57563959499375 255 125 0
-383.5224643319009 863.838970631647 -40.10925293298232 255 125 0
-387.9207743055941 852.0024563271497 -39.72766384588206 255 125 0
-392.0735628852518 843.4934393067088 -39.47327112114856 255 125 0
-395.2796013049767 829.8388396290993 -39.00688445913713 255 125 0
310.4925384074862 849.8392625603828 -46.94263950930242 255 125 0
302.8031721077024 853.6689993132485 -46.994452577193485 255 125 0
295.4363033244385 854.133268918634 -46.89082644141136 255 125 0
287.690824452147 857.8265431437427 -46.94263950930242 255 125 0
279.90194418644904 861.4496056459808 -46.994452577193485 255 125 0
273.4287044623292 864.5735321329843 -47.04626564508455 255 125 0
267.0211417799089 872.8419162424264 -47.35714405243092 255 125 0
263.57332941558286 886.3989649657581 -47.97890086712367 255 125 0
257.13684898256406 895.5628014523174 -48.3415923423611 255 125 0
298.88125544014184 1072.6404060846996 -57.77157069853444 255 125 0
289.0177097057663 1076.3741077182383 -57.8233837664255 255 125 0
279.5494864653859 1074.7448376282186 -57.61613149486125 255 125 0
269.8925361054233 1079.2694049835948 -57.71975763064338 255 125 0
261.57387988573436 1089.5336217497074 -58.13426217377187 255 125 0
255.48920093000825 1102.2559069541796 -58.70420592057356 255 125 0
244.44053336389987 1101.6900052032343 -58.54876671690037 255 125 0
233.9025329000586 1094.786296136739 -58.082449105880805 255 125 0
222.17808749795225 1090.092347929666 -57.71975763064338 255 125 0
213.41800751090875 1090.823616466008 -57.66794456275231 255 125 0
202.94540595919244 1091.804718615754 -57.61613149486125 255 125 0
194.18943262689703 1092.3817160224175 -57.56431842697018 255 125 0
184.2165324207301 1096.1330564091156 -57.66794456275231 255 125 0
173.87769310067324 1097.8205481825776 -57.66794456275231 255 125 0
165.25015652408257 1099.152306979644 -57.66794456275231 255 125 0
154.74454544675459 1099.6719997554019 -57.61613149486125 255 125 0
145.97167022238307 1099.8634554964203 -57.56431842697018 255 125 0
136.33168164334364 1107.1373601191892 -57.87519683431656 255 125 0
129.8031328590218 1127.023819125324 -58.85964512424675 255 125 0
120.53938093202048 1141.107818725065 -59.53321500683056 255 125 0
113.03008881144255 1156.9281971433013 -60.31041102519649 255 125 0
103.61290318059132 1174.8536075939337 -61.19123317934455 255 125 0
93.86774403076944 1192.7027737777964 -62.07205533349261 255 125 0
85.83758983024846 1212.3303120531643 -63.05650362342279 255 125 0
81.7448640804793 1332.6994710649583 -69.27407177035026 255 125 0
-17.87586108808554 1034.4540055429907 -53.67833833514052 255 125 0
-26.075098010058927 1037.2767295469744 -53.833777538813706 255 125 0
-35.780889604697755 1034.9887916153025 -53.730151403031584 255 125 0
-43.61209256596545 1027.6915391316954 -53.367459927794144 255 125 0
-52.93357249559117 1020.2536603336176 -53.00476845255671 255 125 0
-60.88533633606273 1018.8095800174212 -52.95295538466565 255 125 0
-70.69144595919235 1021.1793270001345 -53.10839458833883 255 125 0
-80.0774911514576 1017.4809973296396 -52.95295538466565 255 125 0
-88.32472768029369 1019.8054917014572 -53.10839458833883 255 125 0
-97.93210295520737 1018.9277705681692 -53.10839458833883 255 125 0
-105.72494433794112 1016.1406057559308 -53.00476845255671 255 125 0
