ply
format ascii 1.0
element vertex 755
property double x
property double y
property double z
end_header
387.148126455902286 2444.357069814557690 2309.428466835306608
359.425530518900189 2554.210817368455537 2406.990732937950270
331.770946260581582 2694.282100679418818 2533.207650623188783
298.840835816939432 2829.030742221574656 2654.648793044661033
262.055869640821697 2971.418369602795792 2783.594725166336957
219.041994071346664 3093.647544746009316 2894.119809842059567
173.870567986971110 3252.475911365849697 3039.439828582360860
122.745448844442024 3396.007749943123144 3171.114775140474194
67.923533498232686 3603.028583246791641 3362.828039300214641
0.000000000000230 3749.891885369473130 3499.278761122093783
-64.588142094209829 3737.636020480552361 3488.362703376343688
-129.182262033692439 3736.692820036219473 3489.044956985453155
-193.573657343818923 3730.982496328695561 3486.315942549015290
-257.402413314918078 3718.328570459214916 3478.128899239702605
-321.482727771288580 3711.869369753764204 3476.764392021483673
-386.248994167669991 3712.305448481623898 3482.904674503468414
-450.861462547708186 3709.432371883779524 3486.998196158124756
-515.892767878449945 3708.330128636910104 3493.820732249218963
-587.527304462029974 3709.501408460082530 3504.736789994969058
-651.151501961722943 3696.636346878412951 3502.690029167641114
-715.899184780342466 3689.858125724508682 3507.465804431406923
-781.668180867475826 3686.951149654272740 3517.017354958938085
-842.138881565124962 3659.357854896117715 3504.054536385859592
-901.890369545058206 3630.779720547761372 3491.091717812781098
-966.372859048280588 3621.718979936315463 3497.914253903875306
-1028.603638405702668 3603.778418711785434 3497.232000294765839
-1090.715817097777062 3585.468357473957440 3497.232000294765839
-1162.395153945864422 3577.484428991482218 3510.194818867844333
-1226.412129111072545 3563.779905449672242 3517.017354958938085
-1288.053506251304498 3542.745210837765626 3517.699608568047552
-1351.950590889765863 3527.471126773823471 3525.204398268251225
-1409.961998454406057 3496.805003830962050 3518.381862177157018
-1465.607658878114989 3461.149927550402026 3507.465804431406923
-1529.937033967627031 3446.002139290852938 3518.381862177157018
-1587.091122606134149 3414.412692477282235 3513.606086913391209
-1642.332687868398125 3379.248146561445083 3506.101297213187991
-1708.057923089877704 3352.252423867502785 3510.877072476953799
-1766.752211868469885 3324.177155817754738 3512.923833304281743
-1823.923281519096463 3293.155174682079632 3512.923833304281743
-1889.315251682370445 3276.350572235549862 3529.297919922907568
-1942.632764805482111 3238.202489553224950 3523.839891050032293
-1995.196990221483475 3199.191623225143303 3518.381862177157018
-2050.969575019504191 3165.468416754838927 3519.746369395375950
-2098.418469601011111 3119.246884955389760 3508.148058040515934
-2146.140068638007961 3074.132281377037543 3498.596507512984772
-2204.990625839999666 3034.909232214593885 3500.643268340312716
-2257.978124524666327 2997.526535177903952 3502.007775558531648
-2302.233333037583634 2948.845417798237577 3491.091717812781098
-2364.794543185576003 2923.406508265401953 3508.830311649625401
-2422.464840418709628 2891.077756142720318 3519.746369395375950
-2467.742421572489093 2843.821303594286746 3513.606086913391209
-2528.725375894340687 2814.355307860390894 3530.662427141126045
-2570.500493898168315 2763.285066507876309 3521.793130222703894
-2612.281999209890728 2712.666808930205207 3514.288340522500675
-2665.015377527644432 2665.015377527644887 3517.017354958938085
-2707.508437237047929 2615.523887043080776 3512.923833304281743
-2749.087856124594055 2565.360560107890706 3508.830311649625401
-2777.795612138591878 2503.773259067098024 3489.727210594562621
-2824.501017523417886 2458.765316950034503 3494.502985858327975
-2861.524783226058844 2405.362875882959088 3488.362703376343688
-2902.657250647749606 2355.562679054609816 3488.362703376343688
-2942.923135247049686 2305.059233451617729 3488.362703376343688
-2981.143855808136777 2252.985994401069547 3486.998196158124756
-3018.347653866901055 2192.957934839509107 3481.540167285249481
-3071.356162903268796 2151.385709852124819 3499.278761122093783
-3104.433238606285613 2095.543702442264930 3495.185239467437441
-3132.207986264392275 2036.412109448901901 3486.315942549015290
-3191.715375658180164 1997.504750130102593 3513.606086913391209
-3215.103510199199718 1935.649751022216151 3502.007775558531648
-3240.474162933820935 1875.415924605494638 3493.820732249218963
-3278.144823976946100 1822.344481264417027 3499.961014731203250
-3334.944042405448272 1779.198554035860752 3527.251159095579169
-3331.406703392616691 1697.436497994876845 3489.044956985453155
-3345.782087882486394 1632.569880799052498 3474.035377585046263
-3368.852473268785616 1572.353594155072642 3469.259602321280454
-3418.887862652145031 1524.332428197243871 3493.138478640109497
-3445.387570260826578 1465.319822290590537 3493.820732249218963
-3448.506454446034695 1396.788917033945836 3471.988616757718319
-3467.349297683395434 1335.158402450397716 3467.212841493952510
-3500.887932180464304 1279.064911013824485 3478.128899239702605
-3516.246342688377808 1216.235052379033732 3471.988616757718319
-3537.155158460576786 1149.291379615668575 3470.624109539499386
-3569.068870343521667 1091.855039401616295 3482.904674503468414
-3571.941156330435660 1025.587141628107702 3467.895095103061522
-3579.948594726521605 961.253653625679135 3459.025798184639370
-3610.917413984220275 902.980899882222502 3473.353123975936796
-3616.720977626725926 838.310910135193467 3464.483827057514645
-3620.655635487831660 773.557841277270654 3454.932276529983028
-3637.785692266927526 711.727324634333854 3459.025798184639370
-3632.983720878153235 645.824657399891066 3443.333965175123467
-3640.178431000053934 576.547623475392697 3439.240443520467124
-3669.868093322193999 516.419505158816833 3458.343544575530359
-3663.004590420066506 451.058372400597023 3444.016218784232933
-3662.980436728937093 386.933983769145470 3437.193682693138726
-3678.586810015617630 324.422597440144102 3446.062979611560877
-3694.582381349193838 261.590462509533097 3456.296783748201960
-3681.028854120452252 196.780113084243709 3439.922697129576591
-3705.067835619960988 133.916129752616769 3459.708051793748837
-3704.635597462921851 69.839007459737971 3457.661290966420893
742.787960279250797 2033.061327786257380 1950.980185323308433
704.150703119773425 2035.763835044221423 1941.606910582564979
666.113712670038467 2050.087207371263958 1942.945949831242615
636.677366593730881 2081.178624964096798 1961.692499312729524
604.928744533876738 2106.861320255685769 1975.752411423844478
571.710930122646914 2129.194238339266121 1987.134245037604387
539.883221330417314 2158.931297078568605 2005.880794519091296
510.383855818924019 2201.946766605518860 2037.348216863015523
479.556884011220461 2244.577253286290670 2068.815639206939977
450.687297034822450 2303.556072800867696 2115.682012910656795
425.640110273909272 2394.370629643533903 2192.007250085282067
395.191573074030714 2495.141393082973536 2277.036242376311748
369.100164944906567 2622.962349485040704 2387.506980392216065
340.974216625366353 2769.021033943567090 2514.715709016591063
305.877359928521685 2895.643268503771651 2624.516927408156789
267.677544106787991 3035.161825526887242 2746.369499037821242
224.062329130504111 3164.552428968830100 2859.518315551080832
177.084128171434060 3312.589748979087290 2990.074642297150149
125.376925090853916 3468.813005133737079 3128.665204535284829
68.714526931683594 3644.987118133059084 3286.002316254906418
0.000000000000234 3827.619376544321767 3450.034624217916189
-66.184559879580434 3830.018746238998574 3452.712702715271462
-132.349360484211815 3828.303493623255690 3452.712702715271462
-198.667080713041713 3829.154291487829596 3456.060300836965780
-264.232897772847025 3816.998917729509685 3448.695584969238553
-329.886807500598991 3808.903653195544393 3446.017506471883280
-396.416114940131990 3810.023393146605940 3452.712702715271462
-462.275765898795328 3803.342785326010471 3453.382222339610507
-528.636984746258122 3799.937854736901954 3458.068859709982007
-602.141350093980691 3801.770861204342054 3469.450693323742144
-667.866939342324031 3791.531149683816693 3470.120212948080734
-733.276939541824504 3779.425834386136557 3470.120212948080734
-800.316683514482293 3774.911898161916270 3478.154448440146552
-862.088025479591579 3746.043148830276095 3464.764055953370189
-925.250542809316244 3724.821797301650349 3459.407898958659644
-991.767499317979514 3716.891614176066014 3467.442134450725462
-1052.169886254369203 3686.344270353796219 3455.390781212626734
-1117.434551835158572 3673.299831493952752 3460.746938207337280
-1191.521806502470099 3667.127048057971024 3475.476369942791280
-1257.121273098999836 3653.016327415802607 3482.171566186179462
-1320.050067692041921 3630.750611434325037 3482.171566186179462
-1387.635544556266495 3620.579295494692360 3494.892439048616779
-1445.262241506933151 3584.352091396327978 3483.510605434857098
-1504.659489021086983 3553.373953708618956 3478.154448440146552
-1567.035365303803246 3529.561740967433707 3480.832526937501825
-1628.411053308339433 3503.306955593202929 3482.171566186179462
-1681.229956463213966 3459.282797138811475 3466.772614826386871
-1745.796151638377296 3426.317867675942580 3466.103095202047825
-1805.432339193316693 3396.954534996126313 3467.442134450725462
-1865.294623405251059 3367.852531745508259 3470.120212948080734
-1933.595290763538287 3353.138673772872153 3488.866762429567643
-1992.388217642341942 3321.140569340682760 3490.875321302583870
-2048.293926310771440 3284.329719357152044 3488.866762429567643
-2110.389120208563781 3257.176600008662263 3498.240037170311098
-2155.985947836560626 3204.819510131109382 3481.502046561840871
-2202.532678368786037 3154.909088323519882 3468.111654075064507
-2260.296706716756489 3111.031522025479262 3466.103095202047825
-2308.348338878781760 3064.394346016790678 3458.068859709982007
-2355.921900088776511 3017.613115088145150 3450.704143842255235
-2418.919919015380401 2990.317384907569249 3466.772614826386871
-2474.041734497673588 2952.631925563337973 3472.128771821097416
-2525.661358015493079 2910.566967119891615 3473.467811069775053
-2587.487581602222235 2879.754946394516992 3489.536282053906234
-2638.375215731394746 2836.250314201993206 3491.544840926922916
-2683.379131209715979 2786.496062527017330 3486.858203556550961
-2733.847833544237346 2733.847833544237801 3484.849644683534734
-2778.003732580384167 2683.624184112814419 3481.502046561840871
-2815.267341803805266 2627.117132227417187 3470.789732572419780
-2856.375957780718636 2574.601856839823540 3466.103095202047825
-2888.107707045638563 2514.135777485529616 3451.373663466593825
-2928.272590526997647 2461.470269629611266 3448.026065344899962
-2973.248361202764045 2412.848734946776858 3451.373663466593825
-3017.417345132837909 2363.407195136150222 3454.721261588288144
-3057.801635790821820 2310.919765133528927 3454.721261588288144
-3101.416589757290694 2253.311049520028064 3455.390781212626734
-3152.053854449019582 2207.911834209344306 3468.781173699403098
-3182.343501154379737 2148.134416266595053 3460.746938207337280
-3213.378980327730005 2089.185614903029546 3454.721261588288144
-3266.626257106296634 2044.387013714833529 3473.467811069775053
-3287.461319752774216 1979.212695606296393 3458.738379334321053
-3312.166772588028834 1916.907834450039672 3449.365104593577598
-3353.881603613548577 1864.447106319298427 3458.738379334321053
-3390.837574083718664 1809.017852194221405 3464.094536329031598
-3412.419340493945583 1738.714498328660284 3452.043183090932871
-3438.613478194894014 1677.866833151575293 3448.695584969238553
-3448.916748586374069 1609.722209153188714 3430.618555112090689
-3505.386513779156758 1562.898390055361460 3459.407898958659644
-3525.714965056598885 1499.482981432160159 3453.382222339610507
-3520.115710395286442 1425.793651804850924 3423.253839244363917
-3542.838610060717656 1364.226771703857139 3421.914799995686280
-3579.834479365574225 1307.908381672217956 3435.305192482462189
-3599.090062852319079 1244.889880998302260 3432.627113985106917
-3612.731212438540297 1173.847528116670219 3423.923358868702508
-3653.072241703191594 1117.553479997118984 3443.339427974528007
-3473.358293135856457 997.281715404034003 3257.212972408337464
-3666.547086304578443 984.506254668750557 3421.914799995686280
-3698.142662418963027 924.793288340353797 3435.974712106801235
-3697.649680366152097 857.069176219094629 3421.245280371347235
-3701.736466908394050 790.880867612031693 3411.872005630603780
-3723.596335400896351 728.516048498062105 3419.906241122669599
-3723.926464919021328 661.991277188378035 3409.193927133248508
-3718.868486191588090 589.010903826010690 3393.794975773455917
-3746.143366777148458 527.152871582840703 3409.863446757587553
-3735.524382053262798 459.988380096041567 3392.455936524778281
-3741.437029329490542 395.221639805603672 3391.116897276100644
-3774.344337399476444 332.867662722750595 3415.219603752298099
-3783.236877151684894 267.867537471400396 3418.567201873991962
-3773.207356259878907 201.707783253041299 3405.846329011554644
-3794.686942487409397 137.155326570606121 3422.584319620024871
-3792.034275710554084 71.486628873916402 3418.567201873991962
740.267790374187030 2026.163450804636113 1877.835261453455360
699.725212010472433 2022.969337058621477 1863.390374826890366
664.034933338262817 2043.689382444437797 1870.612818140172749
635.023931518251629 2075.773856524999701 1889.653805057008640
605.308713994532354 2108.184687622119327 1909.351377729597289
575.052427293738901 2141.638808049678573 1930.362121913691908
544.733855868620594 2178.328430201933770 1954.655794876551226
517.915499533575712 2234.440503105260177 1996.677283244740465
485.377766169746678 2271.822028875378692 2022.284127719105754
457.783612987279412 2339.826812656073798 2075.467573935095061
431.413202561534661 2426.846240569431757 2145.722249800661757
399.635216408179929 2523.197452914633686 2223.855954735263367
372.586102678872976 2647.734712917086199 2327.596504144230494
344.113300037117540 2794.513248810923415 2451.034626225786269
309.406772901061288 2929.055093812099130 2563.967376215294735
268.824472709837778 3048.166703930855874 2663.768411089743950
226.399632037199950 3197.563411311659365 2790.489461950064651
178.808929850383890 3344.854415607932424 2915.897341298879383
127.147301140895607 3517.794135129641745 3064.285722099047689
70.257753622895223 3726.848140263327878 3244.846804931110455
0.000000000000240 3920.598677066267555 3412.932758403867410
-71.649275154245586 4146.255070585752946 3609.908485129754354
-143.746237194467426 4157.966612255928339 3621.727028733307634
-215.057669217530673 4145.070205119387538 3613.191413908519280
-285.810256561454196 4128.696499059363305 3602.686041816471970
-356.972633821685179 4121.639114203690042 3601.372870304966000
-429.537607902140735 4128.359752959456273 3613.191413908519280
-501.348907927392702 4124.814434495304340 3617.130928443036737
-574.724699015072929 4131.224645373446037 3630.919229313848973
-655.085539267262106 4136.047315790388893 3645.364115940414194
-725.795739535701273 4120.397331641089295 3642.081187161649268
-796.735549924241582 4106.501593298464286 3641.424601405896283
-868.819792064795820 4098.025491636038169 3646.677287451919710
-935.943086602898802 4066.966578399425089 3632.888986581107929
-1002.980885378888161 4037.744255510394396 3621.727028733307634
-1073.761616611865520 4024.184651295142430 3625.666543267825091
-1143.130791163742288 4005.031599291282873 3625.666543267825091
-1213.695287198575443 3989.734062392949454 3630.262643558095988
-1294.506851442860807 3984.082425446265916 3646.677287451919710
-1365.849985540506168 3968.966562534003060 3653.899730765202548
-1434.736949759768777 3946.192788501837640 3655.212902276708519
-1504.594219993566412 3925.744553316179008 3659.809002566978961
-1569.095592544722194 3891.467518638176898 3652.586559253696578
-1633.156718293903396 3856.830457291903713 3646.020701696167180
-1701.081160384391069 3831.484033424616428 3649.303630474931651
-1764.483830317279171 3796.049199754350411 3644.050944428908224
-1822.884597904529073 3750.750042526030938 3630.262643558095988
-1895.311090627384829 3719.757457665730271 3634.202158092613899
-1962.483616629971948 3692.449435322189856 3640.111429894390312
-2027.815630367502308 3661.289706705257686 3643.394358673155239
-2100.191917497095801 3642.041731557941148 3659.809002566978961
-2163.193262279158716 3605.857954320325462 3660.465588322731946
-2225.172006187943680 3567.944256793067325 3660.465588322731946
-2286.896561305338764 3529.598354538464719 3661.122174078484932
-2335.751016695894123 3472.035815737628582 3642.737772917402253
-2386.324924560725321 3418.173208565214736 3628.949472046590017
-2451.658244792080495 3374.418083305910841 3630.919229313848973
-2503.695542726334679 3323.722999711836565 3622.383614489060619
-2556.571354821156092 3274.617571013826819 3616.474342687283752
-2624.627209285053596 3244.616868515947772 3632.888986581107929
-2680.780005734211954 3199.362613804017201 3633.545572336860914
-2734.175092146137104 3150.857766527904460 3631.575815069601958
-2809.883689279442478 3127.271609158859974 3659.809002566978961
-2861.442036618025213 3076.046889403053228 3657.182659543967020
-2909.453826921439486 3021.258359852373815 3651.273387742190607
-2966.949647968367572 2966.949647968368026 3652.586559253696578
-3018.854361353540753 2916.292183998490600 3653.899730765202548
-3057.762230020958668 2853.405579456970827 3640.768015650143298
-3097.642582396765647 2792.068152912617279 3630.262643558095988
-3132.905565400151318 2727.235535655729109 3615.817756931530766
-3178.404072744629957 2671.727746672171634 3614.504585420025251
-3237.561782425433194 2627.344204732753042 3629.606057802343003
-3280.692117158835117 2569.618474297693865 3627.636300535084047
-3322.193055319419727 2510.732385405847708 3625.009957512072560
-3382.350711711512304 2457.421636687614409 3639.454844138637327
-3417.509417901609140 2393.854875498571801 3632.232400825354944
-3453.983968879441818 2331.496217831791000 3627.636300535084047
-3483.001731454936362 2264.481456617936601 3616.474342687283752
-3538.230712040573508 2214.368081896966487 3633.545572336860914
-3557.222945133773464 2141.622403831126576 3614.504585420025251
-3581.291375520295787 2072.662992696802576 3602.029456060718985
-3638.982065177548520 2022.936520495572950 3624.353371756319575
-3662.743444127525436 1954.080115507900018 3613.847999664272265
-3692.875741621171983 1881.614172176600277 3607.938727862495398
-3743.137023446355670 1826.458688482574871 3625.666543267825091
-3759.099243501391811 1754.494520969617270 3611.221656641260324
-3777.829972942161021 1684.369001650747805 3600.716284549213015
-3813.309261252899887 1621.796542504840545 3607.282142106742413
-3829.575945458460865 1551.137951520943034 3596.776770014695103
-3842.431148514344386 1479.589678837284509 3584.301640655388837
-3873.797814335575822 1415.309188030091946 3590.210912457165705
-3891.257791051098593 1345.947826767148399 3584.301640655388837
-3913.066192079469602 1271.432278469717176 3581.675297632377351
-3949.596121727206537 1208.266521540634812 3595.463598503189132
-3971.332778127225083 1140.261738398226044 3596.776770014695103
-3986.070597839401216 1070.301660595694784 3592.837255480177646
-4024.456286903135606 1006.394426361239994 3611.221656641260324
-4028.018032891494840 933.644448682362849 3599.403113037707044
-4027.320869369988941 860.442403664550284 3584.958226411141823
-4051.209157123280875 792.613006605309693 3593.493841235930631
-4033.852135487501528 717.085837305465134 3566.573825250059144
-4034.732035720595377 639.038775337083962 3556.068453158011835
-4058.615071929885744 571.123521003384099 3567.886996761565115
-4059.642472087232818 499.899926627722891 3560.664553448282732
-4060.172912370011545 428.890873678220089 3554.098695890752879
-4100.787249212376992 361.657375412938677 3583.645054899636307
-4108.680891570111271 290.910209542387349 3585.614812166894808
-4096.524018574993534 218.991616630541529 3571.169925540330041
-4126.831559853178987 149.160375775958926 3594.807012747436147
-4110.693891658315806 77.493932618050906 3579.048954609365410
745.512223854396211 2040.517823068225425 1826.127744114464576
704.139620491027472 2035.731794154823547 1810.684803360853948
667.773089661905374 2055.194244621100552 1816.475906143457905
636.418702643369215 2080.333101135565812 1828.701567573399643
607.562503618921596 2116.034243832707489 1850.579066974348052
575.079866479855696 2141.740998429303090 1864.091640133757437
543.931815987264031 2175.121164384154326 1884.682227805238426
518.368391041941550 2236.394410896620684 1929.724138336602891
486.048290153005269 2274.960432119674351 1955.462372925954014
456.957727668320729 2335.605541822746090 2000.504283457318706
432.612422778284440 2433.592262845416826 2077.718987225372075
400.556916165227847 2529.016836151770804 2152.359867534490604
374.081073434759730 2658.358528289418700 2256.599717621362743
344.466355548178115 2797.380380953500207 2369.204493949774132
310.797726813442239 2942.222810226697675 2486.956917196055656
269.397956676972854 3054.669366118706421 2577.684194123518409
226.040631358817620 3192.493052214773797 2690.288970451929799
177.630536907033132 3322.811037555248276 2797.102643997736777
125.971592082496485 3485.265702413070358 2931.584919727096803
69.731317591559190 3698.923149167213978 3109.822194258353647
0.000000000000238 3887.123758117901616 3267.468881118129502
-70.798469045147399 4097.019971747146883 3444.419243919918699
-152.578142712339144 4413.436035196225021 3712.096883649170650
-228.413652136960593 4402.496443675959199 3705.662325001832869
-303.546755521465343 4384.910611326613434 3694.723575301358323
-380.320302403469896 4391.213459502712794 3705.018869137099045
-455.817606655661280 4380.941336424846668 3702.445045678163751
-532.458997347301533 4380.770603679308806 3709.523060190235356
-609.546696863726083 4381.531437408017155 3718.531442296508430
-694.538150600395511 4385.141300352845974 3732.044015455917815
-769.669333438158446 4369.471043978990565 3729.470191996982521
-844.758127224164355 4354.017585543548194 3728.183280267514874
-920.971632332724312 4344.013868979268409 3732.687471320651639
-993.142783605858654 4315.517221419785528 3722.392177484910917
-1066.450373947744083 4293.256166659399241 3718.531442296508430
-1140.469630567840113 4274.189272178374267 3718.531442296508430
-1214.358498766713865 4254.582413511385312 3719.174898161242254
-1288.133041909137319 4234.430444284880650 3720.461809890709901
-1371.974466893039335 4222.503230181503568 3732.044015455917815
-1446.469288955166348 4203.234837187127596 3736.548206509054125
-1517.830200807519759 4174.737810718426772 3733.974383050118831
-1619.594926429677344 4225.801133967543137 3804.111072306101050
-1662.022625203407415 4121.933100794476559 3735.904750644320302
-1728.217145977804194 4081.323274587153719 3725.609456808580035
-1800.339568267386539 4055.051852435031833 3729.470191996982521
-1865.293713713690750 4012.928079922646702 3719.818354025976078
-1934.684847930776186 3980.789175569564122 3720.461809890709901
-2014.238130062031132 3953.164914648793001 3729.470191996982521
-2084.395371766454900 3921.828670694283574 3733.330927185385463
-2152.586948345232486 3886.568541409338195 3734.617838914852655
-2227.830042719469020 3863.385016771466780 3748.773867938995863
-2291.492101030203685 3819.721133495119830 3744.269676885859553
-2354.716333985279107 3775.661655303959378 3740.408941697456612
-2423.762735022512061 3740.837738828050078 3746.843500344794847
-2473.934604451848372 3677.442283467430116 3725.609456808580035
-2531.845543413442101 3626.617027567671357 3717.887986431774607
-2601.551598470552563 3580.728585307751473 3720.461809890709901
-2661.649006358876704 3533.410460108059397 3718.531442296508430
-2718.061991785137707 3481.464947426468370 3712.740339513904473
-2789.844224387794384 3448.861460765766878 3728.826736132248698
-2854.916459376623607 3407.184836549730335 3736.548206509054125
-2912.857594903900917 3356.771116106050158 3735.904750644320302
-2980.141368730875456 3316.760593781662465 3748.130412074262040
-3031.268054969606055 3258.609663278951302 3741.052397562190436
-3080.745737108567027 3199.132677993912239 3733.330927185385463
-3144.286057983816136 3144.286057983816590 3737.835118238521773
-3199.244456657641422 3090.553728954313556 3739.122029967989420
-3242.091349350393102 3025.415597890416393 3727.539824402781051
-3287.057057443994381 2962.797379869082761 3719.818354025976078
-3329.674166669988608 2898.525193285684054 3710.809971919703003
-3378.085631555397413 2839.577632641136461 3709.523060190235356
-3433.181570218151592 2786.093458130232648 3716.601074702306960
-3479.601663419453416 2725.415369139536324 3715.314162972839313
-3524.950306416457352 2663.965261469473262 3714.027251243372120
-3584.444318879498951 2604.251236933165728 3724.322545079112388
-3628.905246351830556 2541.930819911431172 3724.322545079112388
-3669.744911487196077 2477.138417152421425 3721.748721620177093
-3711.355093368387770 2412.945911556168539 3721.105265755443270
-3751.842838875878897 2348.055202400600592 3720.461809890709901
-3774.801373807079926 2272.615272319892028 3703.731957407631398
-3818.804126850490320 2210.122874721669177 3708.879604325501532
-3860.434676944088096 2146.043633385343128 3712.740339513904473
-3885.456096046813400 2072.897709812864377 3701.801589813429928
-3923.836741541495030 1999.294679476685587 3701.801589813429928
-3975.681410334645534 1939.928410063569117 3718.531442296508430
-3992.651873121608787 1863.501169233854625 3703.731957407631398
-4013.067010822182056 1789.250898793585520 3693.436663571891131
-4055.357636383530007 1724.739469766080674 3704.375413272365222
-4069.652796033824870 1648.379087227024002 3690.862840112955837
-4088.953601445676668 1574.517099228376992 3683.141369736150409
-4123.456559301010202 1506.523116210348917 3690.219384248222013
-4135.848851166711938 1430.549470628003519 3678.637178683014099
-4156.253610535551161 1350.448660602131895 3673.489531765143965
-4198.730002854893428 1284.481941717933523 3690.862840112955837
-4203.374003830410402 1206.886155485011159 3676.063355224078805
-4221.381118754338786 1133.484997445626504 3674.132987629877789
-4258.900606945417167 1065.021838404560640 3690.219384248222013
-4269.209070484545919 989.549529414844642 3683.784825600884233
-4265.457236662686228 911.320551922284380 3666.411517253072361
-4292.586061748205793 839.838036634541254 3676.706811088812628
-4269.526221436756714 758.980915156080869 3645.177473716857548
-4278.537003223578722 677.653688663385765 3641.316738528455062
-4300.976985889409661 605.228403384325020 3650.968576499461506
-4298.636120433162432 529.329342664745468 3640.673282663721238
-4305.617649325278762 454.818096470073499 3639.386370934253591
-4334.946416970755308 382.308383352118710 3658.046591011533110
-4356.939812470102879 308.487883887445662 3671.559164170942495
-4331.808178013709949 231.569416299092239 3646.464385446325196
-4369.586850786536161 157.934533357159040 3675.419899359344981
-4357.121764578719194 82.139538805866422 3663.194237929403243
749.033891235157057 2050.156866973109572 1771.306311902072594
709.184664443450970 2050.317475854846180 1760.594036091921225
673.292764475026956 2072.182056924005337 1768.155642546145828
643.749569244042164 2104.296325952883763 1785.799390939336035
613.510040421930057 2136.748477292900134 1804.073273203711778
580.325814638967472 2161.278219088371316 1816.045816756233762
546.664339093993590 2186.048211978948984 1828.648494179941281
520.384302389855293 2245.091648130309750 1870.237329678175456
487.681118146697486 2282.602921875040010 1894.182416783219651
456.966147347202309 2335.648576544484058 1931.360315183156445
432.443488246654681 2432.641948551477981 2005.085978111844497
400.605593831973863 2529.324174843919081 2078.181507169347242
373.507220695240676 2654.280518380829108 2175.222123331894181
345.906564459187450 2809.076188358901163 2296.837960470670623
311.431476462182445 2948.222315730210994 2405.851120185739092
270.678188364452751 3069.185751341214200 2500.371200863544800
228.138152350330074 3222.117465985094441 2621.356904131135707
179.603552475161138 3359.718868951801596 2730.370063846204175
127.417736200056453 3525.276282658634500 2862.698176795131985
70.382404309225535 3733.460281337836477 3030.313786530440211
0.000000000000242 3945.327970963046482 3201.710199492860283
-72.071053826142020 4170.662881456842115 3385.079156007802794
-154.503068397091454 4469.115939480926500 3628.940964156540758
-238.335247111824174 4593.727511450485508 3732.913052902126765
-316.918895130378701 4578.078997417693245 3724.091178705531547
-396.574179484284741 4578.882230681429064 3729.762383546199999
-475.548093544292612 4570.574436015691390 3729.132249675014464
-556.039733986026363 4574.779529051359532 3739.844525485165832
-638.851037008540970 4592.176312128270183 3762.529344847839184
-727.722290068937923 4594.657711185542212 3775.132022271546248
-804.305655651864527 4566.104065989442461 3762.529344847839184
-882.338809663103575 4547.714392881217464 3759.378675491911963
-962.875611049364238 4541.665412544653918 3767.570415817322100
-1038.590170445152353 4513.000386792445170 3758.118407749541348
-1111.917707695505214 4476.296011515510145 3742.995194841092598
-1190.494009045371968 4461.667882835984528 3747.406131939389979
-1268.470133040619658 4444.165973705455144 3750.556801295317200
-1347.552480122684756 4429.757689194958402 3757.488273878356267
-1435.846009486300773 4419.079625314771874 3770.721085173248866
-1511.984090037690521 4393.611567867917074 3770.721085173248866
-1588.466728543627596 4369.021059925685222 3772.611486786805017
-1683.447187635650835 4392.402642411024317 3817.350991640966186
-1739.051560228389235 4312.970281747148874 3773.871754529175632
-1810.888844725392119 4276.559115773815392 3768.830683559692716
-1881.672743444833941 4238.245205778443051 3763.159478719024264
-1957.238213527397647 4210.734281908004050 3768.200549688507181
-2025.625719810736882 4167.908250174296882 3760.638943234283033
-2125.328007113087097 4171.191074404470783 3799.077109376590215
-2177.037145391464037 4096.135891305037148 3764.419746461395334
-2252.375539464819667 4066.740217789282269 3772.611486786805017
-2332.389217096826087 4044.706006213901219 3788.994967437624382
-2401.525621761104048 4003.137591417770636 3788.364833566439302
-2462.114939465658153 3947.869572959623838 3775.762156142731783
-2535.447199464731511 3913.211648777768460 3783.953896468141465
-2584.477205914965452 3841.761112272941773 3757.488273878356267
-2641.134771870698842 3783.162981914657394 3744.255462583463213
-2715.623558530788614 3737.735168767369942 3749.296533552946130
-2776.528049172355168 3685.915471307727330 3744.885596454648748
-2837.887107004836253 3634.944500033999702 3742.365060969907063
-2916.383002351353298 3605.291239459479129 3763.159478719024264
-2981.231726070218429 3557.935118537710423 3766.940281946136565
-3047.349446037376310 3511.759249417585579 3773.241620657990097
-3117.430740630434229 3469.557364914506252 3785.214164210512536
-3172.681107079341018 3410.628531212150847 3780.173093241029164
-3221.979594810690287 3345.793872383185771 3769.460817430878251
-3287.764565182113529 3287.764565182113984 3773.241620657990097
-3334.585574515533608 3221.296784742411546 3762.529344847839184
-3388.041946384856146 3161.612011010594415 3760.638943234283033
-3439.855136025853881 3100.522323172436700 3758.118407749541348
-3489.983838906142864 3038.076873253388840 3754.967738393614582
-3537.199363637156239 2973.326697627799604 3749.926667424131665
-3594.073505438631400 2916.660385342068821 3756.228006135985197
-3637.206522143385428 2848.860161321626492 3749.296533552946130
-3682.788518969769939 2783.250777185558036 3746.145864197019364
-3745.273458183370622 2721.100446379927234 3756.858140007170732
-3786.005442025791126 2651.974428682758116 3751.186935166502280
-3835.765932394904667 2589.205347924098533 3755.597872264800117
-3883.184357022681979 2524.661096115357850 3758.748541620726883
-3922.934487456018360 2455.131285485215813 3755.597872264800117
-3946.141978785153697 2375.770706760401026 3737.954123871609681
-3987.945350687988594 2308.012914494402594 3739.214391613980297
-4027.227669865345433 2238.765067758971327 3739.214391613980297
-4058.456795476539355 2165.193889406495146 3732.913052902126765
-4109.616019565857641 2093.953949618799470 3742.995194841092598
-4150.066581360764758 2025.019420295922828 3747.406131939389979
-4168.955500805327574 1945.787836533979998 3733.543186773311845
-4180.676603346254524 1863.980678600746842 3714.639170637750794
-4155.808946431729055 1767.461309555367734 3664.858594814106709
-4182.847844864282706 1694.227802245566409 3662.338059329365478
-4282.508991930374577 1649.048703563098343 3724.091178705531547
-4319.843160114452076 1578.273830589058434 3732.282919030941230
-4335.460145794714663 1499.593055666394548 3722.830910963160932
-4337.108061409367110 1409.211833842421129 3700.776225471672660
-4373.431672499113120 1337.926945253143685 3711.488501281824028
-4375.744436733592920 1256.377704154303046 3694.474886759819128
-4393.799127563764159 1179.781036769505363 3691.954351275077897
-4430.853060944237768 1108.021930582656069 3706.447430312341112
-4439.502319028567399 1029.021385015520536 3698.255689986931429
-4452.062851281889380 951.189087057247434 3694.474886759819128
-4473.929133080804604 875.317537055604816 3699.515957729302045
-4462.391908766492634 793.266071934546630 3678.091406108999763
-4458.911689673300316 706.222232425438619 3663.598327071736094
-4481.212879815605447 630.590985577017250 3672.420201268331311
-4476.796592092416176 551.267827968016718 3660.447657715809328
-4482.564311894676393 473.509617826865906 3657.927122231067642
-4517.921868342750713 398.445387660475262 3680.611941593740994
-4545.044540961666826 321.806412978782191 3697.625556115745894
-4528.990979355522541 242.110396955322699 3680.611941593740994
-4544.913754684485866 164.271556443699609 3690.694083532706827
-4540.862795912872571 85.603385902405151 3685.653012563223911
751.319695887776675 2056.413270268025826 1714.830655323335804
711.816862646567074 2057.927400668996142 1705.581299037881081
677.280659305413792 2084.455535191473246 1716.680526580426886
646.461522144004221 2113.161190173684645 1730.862872884790931
615.937366864014848 2145.202431975451418 1748.128337950973446
583.476407067689934 2173.011811876516731 1762.310684255337719
551.000909723718905 2203.389662286358998 1778.959525569156312
524.758891815018615 2263.964919551697221 1820.273316977521517
492.472430723285299 2305.028772866560303 1846.171514576795289
462.398257242989018 2363.413214733508084 1886.252058480433107
438.580165873299052 2467.162850877558867 1962.713403773526807
406.285979719760462 2565.188719846870754 2034.241759047711184
380.334059580395376 2702.794561620105469 2137.834549444805816
352.436883499446310 2862.108323632362499 2258.692804908082962
317.571095588313938 3006.344128988681859 2367.835209076451065
276.784549936967778 3138.425013079090604 2467.728256959363534
232.804147142736412 3288.017812603669427 2581.803651146640732
183.481857111491166 3432.267619166657823 2692.179302819735312
130.749271334437680 3617.450120809691725 2835.236013368104523
72.100683675669444 3824.607036408546719 2996.174812735019259
0.000000000000246 4011.866733876924627 3142.314642045206710
-73.138839850921769 4232.454340058658090 3315.585916459394866
-157.163151946714066 4546.060830707392597 3562.852041157222175
-251.512692936937071 4847.712585630754802 3802.102057074321692
-334.526656329654429 4832.433417354655830 3794.085948293594356
-418.378598484203053 4830.638073280391836 3797.785690807776064
-502.349722631287023 4828.169498242938971 3802.102057074321692
-587.120182235049015 4830.491827494661266 3811.351413359776870
-675.157784180954877 4853.155749707801988 3837.866234711414108
-768.236417548307827 4850.453844924151781 3846.498967244505366
-851.381113049155374 4833.354999660759859 3844.032472235050591
-936.263708881146727 4825.651889932038102 3850.198709758687073
-1018.521417457762936 4804.134034055125994 3846.498967244505366
-1097.490428362456214 4768.940500927200446 3832.933244692505014
-1175.548535875920152 4732.457434633542107 3819.367522140504207
-1257.545904338446462 4712.961283255767739 3820.600769645231594
-1338.140039340763906 4688.258931754182413 3818.750898388140740
-1419.172678499754966 4665.192025996158009 3819.367522140504207
-1512.934058987200615 4656.332246176642911 3834.783115949595867
-1598.027207329013663 4643.640677272864195 3846.498967244505366
-1679.904020699352941 4620.516069492055976 3850.815333511050994
-1775.545428859209096 4632.702760575063621 3885.962887395779489
-1836.187605931218513 4553.874512526664148 3845.882343492141445
-1923.804109099481138 4543.217560644983678 3864.381056063051346
-1994.986219109127205 4493.470401901055993 3850.815333511050994
-2064.693884873294792 4441.910679341077412 3836.632987206686721
-2164.532923346373082 4453.722393410448603 3878.563402367415620
-2232.010773026058814 4380.567791541615406 3850.815333511050994
-2299.975124917467383 4327.445986958199683 3838.482858463777575
-2374.400976589277434 4287.061271739841686 3838.482858463777575
-2462.275745933553026 4269.948354043867766 3860.681313548869639
-2534.873938721919330 4225.417818428913051 3859.448066044142251
-2600.419686847316370 4169.633835558352985 3848.965462253960141
-2671.217867825013400 4122.760229044777589 3847.732214749232753
-2729.747684144581399 4057.702066500183264 3830.466749683050239
-2789.534434624548794 3995.730745074026345 3816.901027131049432
-2865.740386455758198 3944.353256681780294 3818.750898388140740
-2930.620702560369864 3890.477602530225795 3815.051155873958578
-3000.793794108542443 3843.605642630102011 3819.367522140504207
-3078.142979920868584 3805.262172480393474 3833.549868444868480
-3153.037183848018685 3762.975426689081814 3845.265719739777978
-3223.774457972550863 3715.071071203434713 3852.665204768141848
-3301.688325617556984 3674.627601985482670 3869.314046081960896
-3357.178449198838280 3608.962961218838700 3860.681313548869639
-3398.827498043591731 3529.437689350071196 3837.866234711414108
-3470.871528069221768 3470.871528069222222 3844.649095987414512
-3520.697208219901768 3401.085485274452822 3834.166492197231946
-3572.028354653469250 3333.302222480800992 3826.767007168868076
-3629.672376209208778 3271.614583525999478 3827.383630921231997
-3685.657189358350934 3208.413100628923985 3827.383630921231997
-3735.117961529922013 3139.694660124127495 3821.834017149958981
-3796.143277732844581 3080.643926311327505 3829.233502178322851
-3844.465243174019633 3011.196588971793517 3824.917135911777223
-3888.381676703280391 2938.626876871537661 3817.517650883413353
-3951.359212732724245 2870.830511476106949 3825.533759664140689
-3992.633637246331546 2796.710800133015709 3818.134274635776819
-4045.579031675396891 2730.832654776577783 3823.067264654686369
-4096.118337840120148 2663.100605544917471 3826.767007168868076
-4143.521702846702283 2593.183698905694655 3828.616878425959385
-4173.544338749468807 2512.678062946740283 3815.667779626322499
-4219.742000949521753 2442.164618014578991 3818.750898388140740
-4259.243324966028922 2367.744253043023491 3816.901027131049432
-4287.014543711619808 2287.129852949750784 3805.801799588503854
-4323.750178873100595 2203.060753391934213 3800.868809569594305
-4330.038025833862775 2112.836245161714487 3773.737364465593600
-4420.827440400191335 2063.344705714578140 3821.217393397595060
-4470.198352818485546 1993.065752203180409 3833.549868444868480
-4162.021996419278366 1770.103713383088234 3542.503457329221419
-4494.069948291730725 1820.285732119235035 3797.785690807776064
-4499.870939379536139 1732.747404095988486 3776.820483227411842
-4536.531971626873201 1657.442047562574544 3782.986720751048324
-4554.819792803903511 1575.467401707260251 3774.970611970320988
-4591.941737546445438 1492.012314482795773 3781.753473246320937
-4580.147018531064532 1401.165621918105671 3751.538909380501991
-4617.292853585257035 1325.731856297781405 3762.638136923047568
-4663.839906945609073 1252.289811390207660 3782.370096998684858
-1346.473474735130367 336.712167709849552 1087.107675417130849
-1348.255531359039423 312.508852239432201 1084.024556655312608
-4710.912178079653131 1006.492586371336188 3773.120740713229679
-1366.746641668380335 267.401934312797891 1090.807417931313012
-4693.267691506006486 834.308169765262278 3733.656820561955556
-4721.377965113730170 747.792806565136857 3744.139424352137667
-4721.899815325346935 664.460166968115345 3734.890068066682943
-4713.141525566587916 580.371084157428641 3719.474474257591737
-4751.432947612580392 501.911192480594366 3742.289553095046813
-4752.337725951846551 419.119033637686584 3736.739939323773797
-4762.010990119095368 337.168461493563484 3739.206434333228572
-4797.784993076984392 256.479563433675480 3763.254760675411490
-4783.405118426038825 172.891598458759802 3749.072414371047216
-4777.807102490200123 90.070209901485939 3742.906176847410734
757.816046597743593 2074.194225407908561 1668.908971395220533
726.820203867875534 2101.303427033586104 1680.364632687311996
692.508499897231104 2131.322009487638752 1693.629082604470568
657.680829228593893 2149.834995960557990 1699.055448479671895
623.960734935860614 2173.146423729011985 1708.702321146696249
590.664832567668327 2199.783303115982108 1721.363841522165785
558.762444232496932 2234.427151695760131 1740.657586856214493
527.098403805786120 2274.058265578953069 1764.171838982086456
495.563101676509859 2319.494730817104937 1792.509527441470709
469.352784503528028 2398.959243232367498 1847.376115735171879
443.751841061508003 2496.255285725240810 1916.110083487720885
414.344453919473494 2616.067923531278666 2001.726078407562227
386.647210404192322 2747.658147416420434 2096.988945994428377
354.618722384672594 2879.826841547473578 2192.854743122983109
319.558573923142490 3025.158951579305267 2298.970342460251686
277.124773438682723 3142.282764344696716 2383.983407838404219
231.412269011340385 3268.359571351645172 2476.231627716824732
182.402756170196511 3412.081627609098177 2582.347227054093310
129.617513974638115 3586.137703110153325 2711.977078517233622
70.840156859362096 3757.741932147994248 2840.401070896995861
0.000000000000243 3965.038364506697690 2996.559822194453318
-73.497420574233402 4253.204963690850491 3214.820316285880381
-158.990937605789128 4598.930887643301503 3477.697596462295223
-256.780334374835604 4949.242299288162940 3745.398312972221902
-343.356430502230182 4959.984675145013171 3757.456903806002629
-429.140972234373237 4954.901438052881531 3758.662762889380701
-515.430255118724062 4953.888743484711995 3764.089128764581801
-602.775032795974653 4959.291058015624003 3775.544790056673264
-689.140686543178958 4953.667370230928100 3779.765296848496291
-781.014335128935841 4931.130441403234727 3773.133071889917119
-867.896507258068482 4927.114142243959577 3780.971155931874364
-949.858077827193938 4895.719427074241139 3768.912565098094092
-1032.153030277362859 4868.431253498149999 3761.074481056136847
-1118.620131660199604 4860.755696053352949 3769.515494639782901
-1200.705845623823507 4833.734322757207337 3764.089128764581801
-1282.397970420279307 4806.100487835507010 3759.265692431069510
-1369.625161556152079 4798.569064553426870 3771.324283264850237
-1460.456453925353571 4800.902600781262663 3792.426817223965827
-1549.207338324741386 4767.969920833151264 3788.809239973831609
-1636.289079825211047 4754.824258313978135 3800.264901265923072
-1725.558403284545875 4746.086819831592948 3816.543998891526826
-1803.591553634161301 4705.879913666456559 3808.705914849569581
-1881.944962796443406 4667.355978427017362 3803.279548974368481
-1956.706667767759882 4620.919589466332582 3792.426817223965827
-2043.052673541216791 4601.734403048577406 3805.088337599435363
-2110.149965205101580 4539.703311046008821 3783.382874098630509
-2212.333782068174969 4552.076986504097476 3824.985012475173335
-2274.197893639742688 4463.364677655044034 3785.794592265386655
-2334.875971994809788 4393.112580040029570 3759.868621972758774
-2422.413774397355610 4373.750002101871360 3778.559437765118219
-2496.824314480418707 4329.860654136532503 3777.353578681740146
-2575.366672048872260 4292.915737872932368 3783.382874098630509
-2660.975734529540205 4266.732218038915562 3800.264901265923072
-2722.585846340455191 4202.041616542505835 3783.985803640319773
-2784.539699205035504 4139.149034668665990 3770.118424181472164
-2852.443059911558066 4085.841096489521533 3765.897917389648683
-2928.479127981085639 4030.705726230354685 3765.294987847959874
-2993.363990595084942 3973.771000613062370 3759.868621972758774
-3069.921757327688738 3932.149090705170238 3770.118424181472164
-3142.921955448157860 3885.343243032991722 3776.750649140051337
-3219.318696420778451 3842.078744700284915 3788.206310432142800
-3305.090422616715387 3808.779422024765154 3811.117633016325726
-3364.006277396786572 3743.984622734655204 3803.882478516057290
-3422.758497315322529 3679.461437313792885 3797.853183099167381
-3490.801469176282808 3624.946037550081201 3803.279548974368481
-3538.761508429913647 3538.761508429914102 3782.177015015252437
-3591.916378755142887 3469.885064691611660 3774.338930973295192
-3666.497804267256015 3421.458081026532909 3790.015099057209682
-3707.880782004489447 3342.107932355841967 3772.530142348228310
-3753.037146536355976 3267.068240329359014 3760.471551514447583
-3824.803147797344081 3215.082935224474113 3776.147719598362073
-3874.206795229090403 3143.993985423146569 3770.721353723160973
-3921.041319279370327 3071.175182763137855 3764.089128764581801
-3990.067841879056232 3015.475736586585299 3779.765296848496291
-4036.514589566795621 2932.699514234382150 3770.721353723160973
-4075.474534913029402 2854.738171098350904 3760.471551514447583
-4141.382443263250934 2795.501539688898447 3776.147719598362073
-4182.376046746996508 2719.181250164171161 3770.118424181472164
-4223.999558575608717 2643.550000464030290 3765.897917389648683
-4278.612799764416195 2575.934421492804631 3774.338930973295192
-4304.528054927817720 2491.234324427975025 3758.662762889380701
-4335.772098818152699 2410.287153425978431 3749.015890222356120
-4392.958982336167537 2343.651398622515899 3762.883269681203728
-4395.834872848987288 2239.789739491666296 3728.516285804929339
-4483.349988625221158 2187.644611709508354 3770.118424181472164
-4483.609236837105527 2092.647022767159797 3739.369017555331993
-4551.157161194070795 2029.161740697924643 3765.897917389648683
-4195.700687978072892 1784.427226579653507 3445.742330752776525
-4617.809283879606483 1870.405322972096656 3765.294987847959874
-4663.582244454632018 1795.787065168835170 3776.750649140051337
-4608.487892434477544 1683.731461913342628 3708.016681387502558
-4667.049950964442360 1614.286710420576810 3732.133863055063557
-4689.818917993269679 1523.814538221711246 3726.707497179862457
-4695.611923398591898 1436.488823244143305 3711.031329095947513
-4738.900811095728386 1360.648321066905737 3726.104567638173194
-4752.456537169659896 1276.084303774915043 3718.869413137904758
-4778.438945122833502 1194.942615410957387 3722.486990388038976
-1398.165010176533315 324.077248272935890 1084.670245498555687
-1369.227464710400000 292.537249728312929 1058.141345664238543
-1390.519456912756141 272.053050025544053 1070.802866039708078
-1409.936512862431300 250.640199718504761 1082.258527331799542
-4816.086490549148948 762.793163360187691 3685.105358803319632
-4815.116851208475964 677.577558198261386 3674.855556594606242
-4849.859610799636357 597.206399396788811 3692.943442845276877
-4851.520322294112702 512.483786923687830 3686.914147428386514
-4849.319531621482383 427.672070693687147 3679.076063386429269
