ply
format ascii 1.0
element vertex 797
property double x
property double y
property double z
end_header
-8.608531289450760 144.048709843085277 -259.585944114047095
-9.999310700615142 144.445897706122935 -260.459970861905788
-11.207730827640122 142.407722523932279 -256.963863870470846
-12.325841293314866 142.315305927261875 -256.963863870470846
-13.620079256795931 141.709169652329138 -256.089837122612096
-14.732628954944499 141.597828255202899 -256.089837122612096
-16.121317383392210 141.935463470487377 -256.963863870470846
-17.352815983329613 142.769126880286137 -258.711917366188345
-18.508090066202143 141.153979485579328 -256.089837122612096
-19.750027086764817 141.966751711667911 -257.837890618329595
-21.087135235373985 141.774309693453830 -257.837890618329595
-22.346362267779192 141.089378615667925 -256.963863870470846
-23.453775049433784 140.909520972461905 -256.963863870470846
-25.033619530169847 142.117752274786284 -259.585944114047095
-25.884894597748676 140.483254861287861 -256.963863870470846
-27.485378948108838 141.664009411345148 -259.585944114047095
-28.597146323702432 141.443772717499229 -259.585944114047095
-29.324307756053940 138.316094783355425 -254.341783626894596
-30.827727307211553 139.979546329320954 -257.837890618329595
-31.927678399578539 138.735787288381687 -256.089837122612096
-33.233795032006853 138.428718806050341 -256.089837122612096
-34.554241505252968 139.106529521395800 -257.837890618329595
-35.863735595918307 138.774690165737240 -257.837890618329595
-36.576763470476607 137.080379736790718 -255.215810374753346
-38.126435512853092 137.666072726152748 -256.963863870470846
-39.073119936570201 136.895166536062931 -256.089837122612096
-40.499324839776342 136.986778019925708 -256.963863870470846
-41.008324264032019 134.805094724813614 -253.467756879035846
-43.005905901875224 136.730077960371830 -257.837890618329595
-43.692049433882822 134.470301248108569 -254.341783626894596
-44.746818286652136 134.123000841433822 -254.341783626894596
-46.325104053946937 134.614189656607124 -256.089837122612096
-47.866050674379771 135.620739584874144 -258.711917366188345
-48.976080627014227 134.706962284458427 -257.837890618329595
-49.693341523732521 133.407522766595434 -256.089837122612096
-51.470108671916073 134.294347334546046 -258.711917366188345
-51.990925412099521 132.529011907987552 -256.089837122612096
-53.237654363928200 132.033130237607111 -256.089837122612096
-53.921842277974562 130.178842935629149 -253.467756879035846
-55.510962561911704 131.093586257925068 -256.089837122612096
-56.163010154196932 129.227754422684058 -253.467756879035846
-57.373379309063502 129.226748191495744 -254.341783626894596
-58.790082467877468 129.122485796154422 -255.215810374753346
-57.754357584518928 124.250718042350954 -246.475542896165905
-60.385433598262985 126.771475133674414 -252.593730131177125
-60.742067219235373 124.982300836576755 -249.971649887600876
-63.432740447252584 127.449137940848743 -256.089837122612096
-64.189917442099002 125.979806319371832 -254.341783626894596
-65.401347805186631 125.902954055982917 -255.215810374753346
-66.813063896695397 125.710022731881253 -256.089837122612096
-66.178562263270209 122.190720389222477 -249.971649887600876
-68.504275854862144 123.686787051369706 -254.341783626894596
-68.041141699976833 120.605875405366021 -249.097623139742126
48.351524748625707 132.341422266691865 -259.177309976996639
46.463434622178667 130.990681050275811 -255.663041367139044
45.901597401059689 132.705699995505825 -258.298742824532212
44.496988682369128 132.679580777008994 -257.420175672067842
43.834924722709097 134.910026172398290 -260.934444281925437
42.485962353205096 134.339365027566828 -259.177309976996639
41.497419387665403 135.647263044438063 -260.934444281925437
40.158518209338105 135.053379847814483 -259.177309976996639
38.883905379204450 135.425861250903182 -259.177309976996639
38.075485390973213 136.647258294941821 -260.934444281925437
36.414368160962617 135.616198319758411 -258.298742824532212
35.588592337316456 136.822486696723104 -260.055877129461010
34.065769350845336 136.225118145667892 -258.298742824532212
32.557388098612748 135.611281161896130 -256.541608519603415
31.922694149220820 137.723935351419499 -260.055877129461010
30.726735096333108 138.484957802652843 -260.934444281925437
29.238973405860463 136.853701415537643 -257.420175672067842
28.138648663857243 138.059184571182413 -259.177309976996639
27.145184353157422 138.744656606515008 -260.055877129461010
25.487220526778952 137.116026371806271 -256.541608519603415
24.409538759492051 137.311971494561931 -256.541608519603415
23.114338977428108 137.535924150060112 -256.541608519603415
21.891802094229966 138.219398631410684 -257.420175672067842
20.876574197519048 138.859382488334774 -258.298742824532212
19.633501778819529 139.522928585193114 -259.177309976996639
18.411421748792673 138.725890540121696 -257.420175672067842
17.161535253557545 139.367288712262280 -258.298742824532212
16.011781360761933 139.023293064928140 -257.420175672067842
14.801172895221750 140.117976270047365 -259.177309976996639
13.607360685744219 139.279190449003551 -257.420175672067842
12.336059719073329 139.877021293254700 -258.298742824532212
10.904800860772271 138.558632344186549 -255.663041367139044
9.917437103110814 140.069282487531893 -258.298742824532212
8.567653160954276 139.679806973933523 -257.420175672067842
7.521349755959888 140.696664107349477 -259.177309976996639
6.132000517791561 139.329830502388603 -256.541608519603415
5.003025091525901 138.419079028453865 -254.784474214674646
3.762016105463956 140.847325952287918 -259.177309976996639
2.646696767599820 140.394994396119927 -258.298742824532212
1.323407160137948 140.413703208606620 -258.298742824532212
0.000000000000009 141.375177348877884 -260.055877129461010
-1.091590775768278 138.982796447915860 -255.663041367139044
-2.434413902077043 140.876526156919340 -259.177309976996639
-3.552771700096054 141.330529552795724 -260.055877129461010
-4.901105089170771 141.768102745955048 -260.934444281925437
-5.994136095910545 141.248048138338447 -260.055877129461010
-7.275587867074270 140.231327728345519 -258.298742824532212
-8.462203220486662 141.600165621152968 -260.934444281925437
-9.730389013554724 140.561166481829900 -259.177309976996639
-11.054695030679776 140.463218355790445 -259.177309976996639
-12.116326279177798 139.896226156257228 -258.298742824532212
-13.434259507782942 139.775820966087394 -258.298742824532212
-14.581057923078635 140.141053024913560 -259.177309976996639
-15.793384418741272 139.048272788854177 -257.420175672067842
-16.942596546208051 139.394074040249592 -258.298742824532212
-18.317676643195306 139.701770624008702 -259.177309976996639
-19.348504304234048 139.080533635930522 -258.298742824532212
-20.869229016928063 140.309269357094763 -260.934444281925437
-22.115950238539501 139.634614317056503 -260.055877129461010
-23.055107088836653 138.514336775614822 -258.298742824532212
-24.773808419562869 140.642784940918318 -262.691578586854178
-25.531449682366539 138.565028308749646 -259.177309976996639
-26.836241048161753 138.318249553313706 -259.177309976996639
-27.827101174380143 137.635067826106649 -258.298742824532212
-28.132446925263004 132.694358133622757 -249.513071299888281
-30.200992225122160 137.133728615115956 -258.298742824532212
-31.492086720931230 136.843004677723712 -258.298742824532212
-32.111396480823487 133.753592378856467 -253.027339909745848
-33.621461513721002 135.351396091270203 -256.541608519603415
-35.015111757875459 135.490941046053820 -257.420175672067842
-36.324431564294073 136.134704115514666 -259.177309976996639
-37.605838655764295 135.786313345949679 -259.177309976996639
-38.540042470361982 135.027495650511355 -258.298742824532212
-39.540093562049471 133.742230051988116 -256.541608519603415
-40.311263557711207 132.513673745514041 -254.784474214674646
-41.844976105836224 133.039096031491937 -256.541608519603415
-42.654186009639474 131.276086073478467 -253.905907062210247
-43.532744460452520 130.483966133540235 -253.027339909745848
-45.693087231870820 132.777638307385217 -258.298742824532212
-46.734500360947088 132.414674153882231 -258.298742824532212
-47.980385173817197 131.968337467129999 -258.298742824532212
-47.848338931776802 128.454399918674056 -252.148772757281449
-50.424288454050178 131.565622892116266 -259.177309976996639
-50.409473156259338 128.497764085701590 -253.905907062210247
-51.618279291795311 128.016966070402049 -253.905907062210247
-52.639723575332638 127.083534575138813 -253.027339909745848
-54.008675149138398 127.545814152353245 -254.784474214674646
-51.210503640658146 117.832330748789190 -236.334564012922328
-54.460064332786757 122.664850925277790 -246.877369842495085
-57.592853325416314 126.492974210987853 -255.663041367139044
-57.980575975668010 124.737396428367560 -253.027339909745848
-57.510450035785126 120.735815778719171 -245.998802690030686
-60.335895947043873 124.146566683028922 -253.905907062210247
-61.716066782562642 123.999995161459836 -254.784474214674646
-62.014643245945464 121.710590329646621 -251.270205604817050
-64.289653764681759 123.762851926544897 -256.541608519603415
-63.435824881993518 119.355684694553673 -248.634504147423883
-65.508577787545235 120.953674993573756 -253.027339909745848
-60.628995174452022 109.467701420111013 -230.184593945671566
-63.599018227702565 112.732018843777126 -238.091698317851126
47.489966480506283 129.983278502636239 -259.393620571876227
46.105455408456493 129.981458607109118 -258.511329345441254
45.544774357162360 131.674092066893110 -261.158203024746115
44.002434583633352 131.204936482308369 -259.393620571876227
43.054832250027282 132.509148411751141 -261.158203024746115
42.012790619124054 132.843209902799032 -261.158203024746115
40.621226415404834 132.783152930129489 -260.275911798311199
39.711267525894328 133.549272646361970 -261.158203024746115
38.320948704961161 133.465181331722164 -260.275911798311199
37.145200271764530 133.308603260944892 -259.393620571876227
35.765099972649978 133.198161488810143 -258.511329345441254
34.836362763649142 133.930494794923192 -259.393620571876227
33.686761503326615 134.709509081488875 -260.275911798311199
32.305793309546019 134.563313444840531 -259.393620571876227
31.354235539944217 135.271436937970890 -260.275911798311199
30.179917806002052 136.020460056965106 -261.158203024746115
29.209042719315431 136.713610134536140 -262.040494251181087
27.637256297513247 135.599158076143937 -259.393620571876227
26.571421551314721 135.812036150540905 -259.393620571876227
25.462304701410257 136.981984334356952 -261.158203024746115
24.385676455463141 137.177737904861743 -261.158203024746115
22.857704902090518 136.008889145753045 -258.511329345441254
21.648489439261390 136.683182987563242 -259.393620571876227
20.504344877282527 136.383519683304286 -258.511329345441254
19.349250216190608 137.502931800121956 -260.275911798311199
18.144863319161932 136.717433179465900 -258.511329345441254
16.682962705286904 135.480843967129601 -255.864455666136422
15.779964646477206 137.010529944996279 -258.511329345441254
14.339647920972201 135.748866750976134 -255.864455666136422
13.410354895246323 137.262722476411398 -258.511329345441254
12.240163483911862 138.789666008577854 -261.158203024746115
10.857715432730473 137.960355255397019 -259.393620571876227
9.674120398482650 136.632790188144639 -256.746746892571366
8.530065033570393 139.067001777591145 -261.158203024746115
7.362202583597989 137.719608528237018 -258.511329345441254
6.105310023728233 138.723375561121287 -260.275911798311199
4.981597997091909 137.826253962908538 -258.511329345441254
3.707550072422060 138.808154695674205 -260.275911798311199
2.608378198631813 138.362371943337280 -259.393620571876227
1.304247024696936 138.380809891805711 -259.393620571876227
0.000000000000009 138.857659988773179 -260.275911798311199
-1.083180575127850 137.911998462405194 -258.511329345441254
-2.358504862879780 136.483763801719221 -255.864455666136422
-3.501335083297232 139.284362530471981 -261.158203024746115
-4.781358089616711 138.304331896843934 -259.393620571876227
-5.847481860494952 137.792233293259216 -258.511329345441254
-7.170252749398474 138.201074822604937 -259.393620571876227
-8.227369387285368 137.670632282335191 -258.511329345441254
-9.491993092489276 137.117397820290222 -257.629038119006339
-10.857715432730455 137.960355255397019 -259.393620571876227
-12.062753506981585 139.277669963374024 -262.040494251181087
-13.284793052861195 138.220707605989304 -260.275911798311199
-14.418666768917129 138.580283740120848 -261.158203024746115
-15.458485741804397 136.099754513563767 -256.746746892571366
-16.583716498275201 136.441412573237557 -257.629038119006339
-17.930085780306083 136.745766384059067 -258.511329345441254
-19.003520470362762 136.600727705914124 -258.511329345441254
-20.151590036814490 135.484395334186189 -256.746746892571366
-21.648489439261407 136.683182987563214 -259.393620571876227
-22.489467738328891 135.115993875368275 -256.746746892571366
-23.925200251971113 135.825172162437809 -258.511329345441254
-24.905925517332115 135.170165317649491 -257.629038119006339
-26.447709061409615 136.315693971606862 -260.275911798311199
-27.424223629591676 135.642403270244557 -259.393620571876227
-28.408514959319817 133.996508304836055 -256.746746892571366
-29.561271299949254 134.228946047439365 -257.629038119006339
-30.719452553138240 133.485666627235247 -256.746746892571366
-30.987189500993079 129.070933304234813 -248.806125854656784
-33.361643849845791 134.305436696544632 -259.393620571876227
-34.154841086891771 132.162124517582129 -255.864455666136422
-35.677179703847926 133.708969239138355 -259.393620571876227
-35.302540261113940 127.469615494636756 -247.923834628221840
-37.594492119739989 131.714699720041494 -256.746746892571366
-38.834185860848891 131.354535394126913 -256.746746892571366
-39.590649889105670 130.144828014805483 -254.982164439701478
-40.674229538194488 129.316903320780739 -254.099873213266505
-42.327554678236268 130.270818202093182 -256.746746892571366
-42.604548527149639 127.701814715625147 -252.335290760396617
-44.112536828235982 128.184782745766711 -254.099873213266505
-45.431245809449003 128.722112439445056 -255.864455666136422
-46.964059082119647 129.172968814712789 -257.629038119006339
-47.319901441149391 127.035748356916415 -254.099873213266505
-49.188886182534858 128.342246333766582 -257.629038119006339
-49.679650647906520 126.637388354099443 -254.982164439701478
-49.990835485298859 123.980790874014644 -250.570708307526701
-51.157089374411790 123.504138979237510 -250.570708307526701
-50.840717364864084 120.064427992078237 -244.394669722482035
-54.971901800758914 126.487084765443583 -258.511329345441254
-53.862599962494478 121.319133126135455 -248.806125854656784
-54.028355656612796 118.664157167535166 -244.394669722482035
-55.157072560140328 118.663009292107844 -245.276960948916980
-56.475399620222220 118.562860146876091 -246.159252175351924
-56.787582408040073 116.845590432193760 -243.512378496047063
-58.934952382806237 118.412176784630020 -247.923834628221840
-48.295095626842667 94.784462041617289 -199.397817174299405
-49.255016313734401 94.819942770093718 -200.280108400734377
-48.158286301219015 90.610711626923603 -192.339487362819796
-49.765117315275496 91.885277150885003 -195.868652268559600
-47.436079569098304 85.647446075418387 -183.516575098470270
-47.875998066714985 84.862283516676172 -182.634283872035297
46.172908348240206 126.378400531606815 -258.026282408861960
45.288926374298939 127.679482975058733 -259.799658920263084
43.982462586109044 127.157306400866091 -258.026282408861960
43.370167630394072 129.319664764400329 -261.573035431664152
41.292173396828872 127.084242277606151 -256.252905897460835
40.850478519156347 129.168013183105558 -259.799658920263084
39.631302409926164 129.547277448072833 -259.799658920263084
38.217277463565459 128.524973534408105 -257.139594153161397
37.387081601889854 130.212685074107156 -259.799658920263084
36.487357631825454 130.947703794683775 -260.686347175963647
35.011795542089430 130.392667717821951 -258.912970664562522
34.219409707032170 131.558581610456883 -260.686347175963647
32.753657738166950 130.978133772101103 -258.912970664562522
31.517781500084300 131.281008036061110 -258.912970664562522
30.694547839675423 132.425349268827091 -260.686347175963647
29.344970088294875 132.257362575518130 -259.799658920263084
28.305328802833305 132.483755933618056 -259.799658920263084
27.055460183409789 132.744639436697810 -259.799658920263084
26.100840857917891 133.406800810763059 -260.686347175963647
24.757872922150103 133.192285637290752 -259.799658920263084
23.791955338661694 133.837854350763166 -260.686347175963647
22.529525283217627 134.056140801403899 -260.686347175963647
21.120433521498047 133.349169136951815 -258.912970664562522
20.209953637396957 134.425392579033371 -260.686347175963647
18.684429070594408 132.778466737093254 -257.139594153161397
17.884348348210555 134.754511910410002 -260.686347175963647
16.217980988686264 131.704769147135210 -254.479529386059738
15.394695519479248 133.665406654544512 -258.026282408861960
14.231406373426825 134.724178592965870 -259.799658920263084
13.037981427415342 133.451265108450059 -257.139594153161397
11.779672450873923 133.568216412803736 -257.139594153161397
10.556594091354532 134.134245841442748 -258.026282408861960
9.404824506565609 132.829379895194251 -255.366217641760272
8.265767625812821 134.758119262653196 -258.912970664562522
7.157771833752554 133.895464527830029 -257.139594153161397
5.936196475367543 134.880818477117884 -258.912970664562522
4.793168137593100 132.612950584225871 -254.479529386059738
3.567816922882880 133.576640553323813 -256.252905897460835
2.553468829780582 135.449684465672789 -259.799658920263084
1.276791120875255 135.467734274064810 -259.799658920263084
0.000000000000008 135.011383303969581 -258.912970664562522
-1.060366023317149 135.007219234928272 -258.912970664562522
-2.316735669176297 134.066632144566881 -257.139594153161397
-3.404468294079348 135.430966992595842 -259.799658920263084
-4.664729886006867 134.930774535470562 -258.912970664562522
-5.743922776792072 135.351928601144152 -259.799658920263084
-7.019310660870133 135.291782835326615 -259.799658920263084
-7.971332559823404 133.386303930830110 -256.252905897460835
-9.323889602709647 134.689044485169177 -258.912970664562522
-10.592871046994906 134.595188267014692 -258.912970664562522
-11.689537639549407 134.968484968486393 -259.799658920263084
-12.916811986596706 134.392074132942497 -258.912970664562522
-14.019764658299271 134.746367015370339 -259.799658920263084
-15.184715483589386 133.689423672722398 -258.026282408861960
-16.234230634595139 133.566041125598247 -258.026282408861960
-17.492321270033926 133.407107317594381 -258.026282408861960
-18.666967538008198 134.181524614418976 -259.799658920263084
-19.930750837911621 133.999635805296379 -259.799658920263084
-20.397131003638542 128.782416769247988 -250.046088107556955
-22.091178572580255 132.723085465704088 -258.026282408861960
-23.341064531718658 132.508989479160874 -258.026282408861960
-24.548624511355918 133.231010877781131 -259.799658920263084
-25.715122852355009 132.539828271880936 -258.912970664562522
-26.663656726111896 131.880578540793067 -258.026282408861960
-28.001294128035756 132.075740197837348 -258.912970664562522
-28.938295959480918 131.400200202373043 -258.026282408861960
-29.760627833587733 129.319272169310693 -254.479529386059738
-30.978093460699252 129.033045569690216 -254.479529386059738
-32.436412109447744 130.580690592936804 -258.026282408861960
-33.549957800143687 129.821529225148282 -257.139594153161397
-34.330124819602574 128.660551130529655 -255.366217641760272
-35.170958676872196 126.994503680432672 -252.706152874658613
-36.294178890381794 127.158969428449609 -253.592841130359176
-37.228819486248881 125.924470372845462 -251.819464618958051
-39.293195474969842 129.167017504536375 -258.912970664562522
-39.676430128000050 126.144567143140762 -253.592841130359176
-40.434896440493311 124.445815102292556 -250.932776363257489
-40.679390713022606 121.931394538039584 -246.499335084754705
-42.879934709679176 124.603015607903046 -252.706152874658613
-44.165001975127609 125.134414626778607 -254.479529386059738
-43.762512978364768 120.367230488388202 -245.612646829054171
-39.219073197507143 105.288138009042001 -215.465246135235247
-37.396614334766625 97.574185176521269 -200.391545788325772
-30.394353117963817 77.477628151022742 -159.603886026100184
-26.627628248461590 66.038392383227134 -136.549991377885704
-28.133535999343746 67.920364167127389 -140.983432656388487
-24.339148389617201 57.478849250724252 -119.702914519575131
-31.514394066589539 72.512751115648541 -151.623691724795179
-22.889575824349695 51.556061136459988 -108.175967195467891
-14.944324626673190 32.822684768218814 -69.161683944643414
-12.083362678688363 25.995726590777906 -54.974671853434508
-10.538303166351392 22.123816261587088 -46.994477552129496
-10.307519932518495 21.208655155501219 -45.221101040728385
-10.712964602296733 21.524501286349242 -46.107789296428940
-11.335170583361711 22.246524868598645 -47.881165807830051
-11.296403296598944 21.746502067297754 -46.994477552129496
-11.066860000034689 20.822502981242835 -45.221101040728385
-11.670450921056583 21.548077754212940 -46.994477552129496
-12.545072922336352 22.650553468755344 -49.654542319231169
-12.041014354504245 21.343220303342694 -46.994477552129496
45.180545381901794 123.662235383707269 -258.391892014626649
44.316605319535952 124.938295238968934 -260.173905063003417
43.630793622925403 126.140599389164123 -261.955918111380129
42.006964819276611 125.254913803741061 -259.282898538815004
40.684326114245586 125.213480702882876 -258.391892014626649
39.973447784688339 126.394867761598945 -260.173905063003417
38.249207526426261 125.029469088399054 -256.609878966249937
37.913038959413477 127.501817300122184 -261.064911587191773
36.960274737938903 128.726191200236485 -262.846924635568485
35.582557824326280 127.700511756788842 -260.173905063003417
34.377446349027110 128.030192949893859 -260.173905063003417
33.370849621424547 128.296241253637504 -260.173905063003417
31.829808601293415 127.283766663487796 -257.500885490438293
31.158701355253925 129.785331591355089 -261.955918111380129
30.138419216391771 130.026046058322208 -261.955918111380129
28.813293326000018 129.861102974222518 -261.064911587191773
27.602778605519568 129.195453242616935 -259.282898538815004
26.746597987729686 131.229241046752009 -262.846924635568485
25.453601997211464 130.098629007514290 -260.173905063003417
24.392272818815005 131.225431960258362 -261.955918111380129
23.201971354957887 130.518993443525318 -260.173905063003417
21.970846566468818 130.731866908646168 -260.173905063003417
20.808789961310211 131.381529136777147 -261.064911587191773
19.776290660771114 131.540907194957555 -261.064911587191773
18.535686849048385 131.721449472004196 -261.064911587191773
17.560316924872254 132.313008566512252 -261.955918111380129
16.201565130507433 131.571457435072944 -260.173905063003417
15.219660483333842 132.145654006266085 -261.064911587191773
13.973559524690588 132.283224832862572 -261.064911587191773
12.801757238693005 131.033374194145978 -258.391892014626649
11.606130109813632 131.600441751479792 -259.282898538815004
10.365328066871813 131.703980575291126 -259.282898538815004
9.394746326930559 132.687040359729053 -261.064911587191773
8.116007153883535 132.316550560182748 -260.173905063003417
7.052320983061653 131.922868730415388 -259.282898538815004
5.868565754274092 133.344129613611642 -261.955918111380129
4.821113175807775 133.386108100393841 -261.955918111380129
3.551661503766095 132.971792642403699 -261.064911587191773
2.507204681752702 132.995585876582908 -261.064911587191773
1.257936715765529 133.467278992429556 -261.955918111380129
0.000000000000008 133.019216423687226 -261.064911587191773
-1.030457356528156 131.199207807351314 -257.500885490438293
-2.290448694371047 132.545437375436450 -260.173905063003417
-3.285741481581098 130.707971906241340 -256.609878966249937
-4.595899242568130 132.939797081701244 -261.064911587191773
-5.601356191245601 131.992436655019503 -259.282898538815004
-6.845088410206608 131.933783732473159 -259.282898538815004
-7.935237597215522 132.782317882493231 -261.064911587191773
-9.092252719971633 131.342914089712792 -258.391892014626649
-10.365328066871797 131.703980575291126 -259.282898538815004
-11.399398385828754 131.618510255023438 -259.282898538815004
-12.726217353693810 132.409045498554548 -261.064911587191773
-13.765752367292245 132.305011241956095 -261.064911587191773
-14.960832157713092 131.718307859674638 -260.173905063003417
-15.940096302333799 131.146070681446162 -259.282898538815004
-17.234414622559086 131.440153974670210 -260.173905063003417
-18.266201014735465 131.300742666431887 -260.173905063003417
-19.436061197267552 130.673708336629886 -259.282898538815004
-20.382671395549607 128.691122396774858 -255.718872442061553
-21.616387872092947 129.870558312747477 -258.391892014626649
-22.839410881021657 129.661063745865420 -258.391892014626649
-23.939317298768174 129.924161003946608 -259.282898538815004
-25.249212230568141 130.138450912875925 -260.173905063003417
-26.000625295942950 128.601172062544407 -257.500885490438293
-26.929017866390726 127.018056781286205 -254.827865917873197
-28.218702246069622 128.132739045053768 -257.500885490438293
-29.628687298549981 128.745949117924823 -259.282898538815004
-30.734773445658590 128.019544766982932 -258.391892014626649
-31.301495179907217 126.011805602668375 -254.827865917873197
-32.260533838110014 124.832104452457685 -253.045852869496457
-33.591084138400483 125.890815166824410 -255.718872442061553
-35.260751546293591 127.318725746455314 -259.282898538815004
-35.761198755028445 125.291639547752737 -255.718872442061553
-36.425589575614140 123.207588600065435 -252.154846345308073
-37.656381623885039 123.786381982301563 -253.936859393684813
-39.229996889169705 124.725207400117370 -256.609878966249937
-37.597928960751084 115.714526994388336 -238.789748482482565
-40.086032679824029 120.152877918686926 -248.590820248554621
-34.421073109009335 100.022762135281994 -207.604520135889686
-36.414355633200046 103.174207458159188 -214.732572329396646
-34.437743521754435 94.719784808342666 -197.803448369817659
-39.459322948186959 105.933116251613569 -221.860624522903578
-46.792426137072141 122.089470770960460 -256.609878966249937
-46.423476508338979 118.337140995609474 -249.481826772742977
-44.650542720813398 110.736488913220398 -234.334715861540730
-39.785233178637128 96.050049522041803 -204.040494039136235
-28.854824932123023 68.142981253076783 -145.234063442703956
-13.390716018917434 30.811243138242848 -65.934482789939210
-14.184951932464413 31.949925794164809 -68.607502362504320
-11.851722356985388 26.030306260175273 -56.133411023867168
-10.142177812278021 21.819528922031225 -47.223345781983490
-10.152135171037701 21.313106070433655 -46.332339257795127
-10.716105888678182 22.049357739857442 -48.114352306171860
-10.923437179816064 21.947383040722340 -48.114352306171860
-10.717583440395700 21.034441853748639 -46.332339257795127
-11.091733293111417 21.352495538220012 -47.223345781983490
-11.718611556592801 22.048785660288058 -49.005358830360230
-11.459003864148407 21.157666307904886 -47.223345781983490
-10.118175875814536 18.268708767196664 -40.986300112664921
-11.599780666174874 20.561114449299975 -46.332339257795127
44.789509740437573 122.591944152616080 -261.207034832703357
43.183860392965677 121.744837187616497 -258.523400913189278
41.495796812974916 119.968129100665848 -254.050677713999164
40.931794774036902 122.049008975333521 -257.628856273351289
40.055957073798361 123.279559651827839 -259.417945553027323
39.086496210632554 123.590352936718986 -259.417945553027323
38.181482882123511 124.808089957458279 -261.207034832703357
37.072677389827255 124.675675417216695 -260.312490192865368
35.649299765972195 124.160294001239592 -258.523400913189278
35.272937503725977 126.589330441882666 -262.996124112379391
33.614661754725304 125.189392682295434 -259.417945553027323
32.517881296539230 125.016953155412409 -258.523400913189278
31.012887493246563 124.016992520997718 -255.839766993675227
30.155730067391978 125.607655516616447 -258.523400913189278
29.370146593984575 126.711490949468498 -260.312490192865368
28.077812151438934 126.546299787212519 -259.417945553027323
27.269843821422644 127.637144169955903 -261.207034832703357
24.637441288385752 120.880895697165698 -246.894320595294971
24.974647817826163 127.650595047437719 -260.312490192865368
23.688792426290711 127.440851528976637 -259.417945553027323
22.843617122031461 128.503128797274513 -261.207034832703357
21.261104526625509 126.508729597502523 -256.734311633513244
20.277629808641056 128.027915918327238 -259.417945553027323
19.005672238428581 126.415181237806252 -255.839766993675227
17.501987500812405 124.375599405762941 -251.367043794485085
16.701033434859770 125.838502197322043 -254.050677713999164
15.787448557909984 128.208453887837464 -258.523400913189278
14.882309056927857 129.216579148046890 -260.312490192865368
13.616873815225201 128.906595147598210 -259.417945553027323
12.647496403529377 129.454425510725940 -260.312490192865368
11.387605930982046 129.122623719498591 -259.417945553027323
10.240305209160391 130.115414548508170 -261.207034832703357
8.965525782042702 126.624928432395393 -254.050677713999164
7.881194464250595 128.488362076499300 -257.628856273351289
6.919537476664700 129.438979933231820 -259.417945553027323
5.679661766095705 129.051898949613076 -258.523400913189278
4.682070839961760 129.539213127516490 -259.417945553027323
3.461002649018792 129.577586741342117 -259.417945553027323
2.451631229466612 130.047671851148806 -260.312490192865368
1.200594387843679 127.383249181626667 -254.945222353837181
0.000000000000008 127.835885511940560 -255.839766993675227
-1.021563003762007 130.066766926139621 -260.312490192865368
-2.247349883642539 130.051362423043742 -260.312490192865368
-3.246225850194409 129.136025949414773 -258.523400913189278
-4.478585427210612 129.546407891603593 -259.417945553027323
-5.476940593622193 129.060661326417858 -258.523400913189278
-6.646728748562927 128.110554705727253 -256.734311633513244
-7.732684636594566 129.392948468444501 -259.417945553027323
-8.890086250753136 128.422501072588858 -257.628856273351289
-10.064957517222698 127.887410874732353 -256.734311633513244
-11.184766622453033 129.140352023090799 -259.417945553027323
-12.401370999578214 129.029204145330510 -259.417945553027323
-13.321858189104498 128.038668025227082 -257.628856273351289
-14.477540287222585 127.463304748064473 -256.734311633513244
-15.424246994673538 126.901955183004489 -255.839766993675227
-16.387125506781047 124.978210573752349 -252.261588434323130
-17.860901080906768 128.387373746893900 -259.417945553027323
-19.004353395310144 127.771224195061066 -258.523400913189278
-19.997938363004643 126.262013629798574 -255.839766993675227
-21.209134951178800 127.423795952330195 -258.523400913189278
-22.098955418997861 125.457442060412092 -254.945222353837181
-23.083604150858797 125.280009651815419 -254.945222353837181
-24.433566491167745 125.934483198954666 -256.734311633513244
-25.510467865368085 126.176814211545775 -257.628856273351289
-26.513099434575651 125.056264069395098 -255.839766993675227
-27.782864650941800 126.153730075911128 -258.523400913189278
-28.870339791172899 125.450691092664528 -257.628856273351289
-29.112279200008132 121.261369858602052 -249.577954514809051
-30.602533080097729 123.197963141195046 -254.050677713999164
-31.426753252793830 121.605791284829138 -251.367043794485085
-33.072270154647704 123.946432691240076 -256.734311633513244
-33.642454217505488 121.475414281307266 -252.261588434323130
-34.350114508388742 120.347815935669999 -250.472499154647068
-35.862996681606766 121.304648533981080 -253.156133074161147
-36.684518324835743 120.591612958227614 -252.261588434323130
-35.941861481388827 114.271131355865606 -239.737963476590750
-36.050361366418507 110.951603686645058 -233.476150997724574
-26.594186393820934 79.712753233668181 -168.174392289548734
-10.617721530428057 30.853594589957666 -65.301758708175839
-8.033213930936862 22.760816888122935 -48.305410551253360
-8.094640555215779 22.264020028100294 -47.410865911415335
-8.425273894765263 22.618622223138331 -48.305410551253360
-8.478107743260022 22.120838198935175 -47.410865911415335
-9.957480167614865 25.382410435038441 -54.567223030119543
-10.029106198076992 24.872889323138583 -53.672678390281511
-9.236770888620850 22.299537551841443 -48.305410551253360
-9.934492382795495 23.461099826186299 -50.989044470767439
-9.798842018430440 22.546554155623017 -49.199955191091391
-8.524619189761285 19.200696049808041 -42.043598072387184
-8.890417230344278 19.526299749183881 -42.938142712225215
-8.101469333986092 17.429219612957510 -38.465419513035087
-8.649809599536834 18.159166163381574 -40.254508792711135
-9.573688720110447 19.698731019705448 -43.832687352063239
-9.758916942368851 19.607627587452335 -43.832687352063239
-10.146202368568773 19.913043359534317 -44.727231991901263
-9.478101744351303 18.246122572451902 -41.149053432549159
-9.649643902503353 18.155984527424945 -41.149053432549159
-8.940468406228288 16.507494841428958 -37.570874873197063
-9.745337683389083 17.595536800400790 -40.254508792711135
-10.981367462596255 19.464950218124798 -44.727231991901263
43.942715902079556 120.274211640196071 -262.425516544177640
42.514023161749279 119.856418136735897 -260.628081499354494
41.858070614018288 121.015495664784211 -262.425516544177640
40.436809734745431 120.573079716999118 -260.628081499354494
38.756605708527026 119.280567345926059 -257.033211409708201
38.611989657397586 122.089977152993896 -262.425516544177640
37.459620896329909 122.448458825845549 -262.425516544177640
36.246789634255975 121.898209072881045 -260.628081499354494
35.096333263377353 122.234408107667377 -260.628081499354494
34.252941586378327 122.928716686171143 -261.526799021766067
33.092861606397911 123.246078656193248 -261.526799021766067
31.903095788103400 122.653373240477151 -259.729363976942921
30.532942068528925 122.097745622086563 -257.931928932119774
29.380858906309232 122.380084847508783 -257.931928932119774
28.913892574526763 124.743076291673503 -262.425516544177640
27.356991814236732 123.297572785538534 -258.830646454531347
26.571029623866021 124.366327913521118 -260.628081499354494
25.397741853779472 124.611226792350479 -260.628081499354494
24.418274302755805 124.806854835947220 -260.628081499354494
23.321071474881830 125.462588123680234 -261.526799021766067
22.334981465746925 125.641879945953988 -261.526799021766067
20.786460554061328 123.684482818366035 -257.033211409708201
19.962860309573003 126.040539516812814 -261.526799021766067
18.776743623211097 124.892475172996669 -258.830646454531347
17.598843272216367 125.063892356704429 -258.830646454531347
16.789145036564001 126.502403148596329 -261.526799021766067
15.381779765701570 124.914054007526929 -257.931928932119774
14.450417817470210 125.466656450349092 -258.830646454531347
13.405499182679891 126.905579014840569 -261.526799021766067
12.280460422966021 125.697600405613755 -258.830646454531347
11.249361417818482 127.555086665380969 -262.425516544177640
9.977888206909258 126.781090391652057 -260.628081499354494
8.950882435297300 126.418112593734705 -259.729363976942921
7.732192009213597 126.059151443526858 -258.830646454531347
6.718488082507448 125.678088604343060 -257.931928932119774
5.591562905154896 127.050137970186881 -260.628081499354494
4.530191928992463 125.337167645909105 -257.033211409708201
3.407277530235896 127.566154810987101 -261.526799021766067
2.413546073878675 128.027430896159188 -262.425516544177640
1.186161795948567 125.851948962063091 -257.931928932119774
0.000000000000008 127.173122687012082 -260.628081499354494
-1.002249256813373 127.607714852417885 -261.526799021766067
-2.182130788740760 126.277213942778360 -258.830646454531347
-3.162811958769610 125.817791499729339 -257.931928932119774
-4.393912954430719 127.097193764908567 -260.628081499354494
-5.391986198869514 127.058764431254517 -260.628081499354494
-6.271128898473626 120.871158160060816 -248.046036185592556
-7.612650229591295 127.384382676647931 -261.526799021766067
-8.843148634139082 127.744459718439742 -262.425516544177640
-9.874668673734318 125.469561870359101 -257.931928932119774
-10.481399736974073 121.019212775554450 -248.944753708004129
-12.124954885947460 126.153251869091505 -259.729363976942921
-12.979230288493538 124.745612401921704 -257.033211409708201
-14.154336136362039 124.617747536019550 -257.033211409708201
-14.603521908784357 120.149494715855397 -248.046036185592556
-15.735238869778792 120.006525615596047 -248.046036185592556
-17.523221542316534 125.960072406873124 -260.628081499354494
-18.709571424834756 125.789328128680424 -260.628081499354494
-19.688456731434560 124.308023509708846 -257.931928932119774
-20.664152389375349 124.149558369671908 -257.931928932119774
-22.213670402430047 126.108687701417907 -262.425516544177640
-22.965039006556815 124.636529442856443 -259.729363976942921
-23.971623646208407 123.553556392037720 -257.931928932119774
-24.593648287865776 121.642151260378952 -254.337058842473510
-26.011840783452207 122.691940939364741 -257.033211409708201
-26.974648861000450 122.483862411494670 -257.033211409708201
-26.849279821619923 116.668550953196515 -245.349883618357836
-28.971369583573171 120.674439065661986 -254.337058842473510
-29.706804789502765 119.591990372848912 -252.539623797650393
-31.710393040319214 122.703335168043310 -259.729363976942921
-31.881724525145060 119.484571348097234 -253.438341320061966
-33.708671437156319 121.714509923308782 -258.830646454531347
-33.339609854021987 116.807448461315019 -248.944753708004129
-35.184968170220301 119.011253729303846 -254.337058842473510
-35.608075530911236 117.053063763519106 -250.742188752827246
-33.420279307189780 106.254182984905114 -228.274250692538061
-30.896874480923632 95.090801940108889 -204.907595109837331
-16.654081727585112 49.918530592565311 -107.846102689388061
-11.415870782411050 33.172903245057462 -71.897401792925379
-10.216548461303475 28.946943372295230 -62.910226568809705
-9.290176711035095 25.552299567619603 -55.720486389517170
-9.643649205297235 25.889491659447536 -56.619203911928736
-9.102520000979508 23.750036947137602 -52.125616299870899
-8.488013685997409 21.636623275124840 -47.632028687813062
-8.855545646091265 21.962376546921366 -48.530746210224628
-9.229957207568567 22.283087870635338 -49.429463732636194
-9.404681697580209 22.209909438608761 -49.429463732636194
-8.739622158698523 20.109352097947390 -44.935876120578364
-8.897289466480979 20.040091751927733 -44.935876120578364
-7.813757840713503 17.161599260443182 -38.644853463697387
-8.502835067495113 18.292703905257188 -41.341006030932093
-8.109107842347996 17.024032153709236 -38.644853463697387
-8.625937813561002 17.748647752157545 -40.442288508520527
-9.379017918363733 18.844334014249647 -43.138441075755225
-9.357114853584205 18.364371912862651 -42.239723553343659
-8.490307341073841 16.344537398044586 -37.746135941285822
-8.849780465343738 16.651026589510213 -38.644853463697387
-8.771439238409702 16.195402902949255 -37.746135941285822
-9.348622894363068 16.879254830873084 -39.543570986108961
-9.480902555332012 16.805311077241644 -39.543570986108961
42.197636347774228 115.497809833097790 -257.108178419937815
41.972652649804253 118.330175132169771 -262.520982176147015
39.913702113467295 115.394149186134783 -255.303910501201415
39.098758550167950 116.583325005839001 -257.108178419937815
38.664902627956678 118.998334284546459 -261.618848216778815
37.729108987903075 119.298334408762685 -261.618848216778815
36.224437009945369 118.410874898531333 -258.912446338674215
35.662252339177783 119.932406028657837 -261.618848216778815
34.054068237561722 118.604380789262649 -258.010312379306015
33.468939313992330 120.115049048884771 -260.716714257410615
32.223524715376819 120.008451033539970 -259.814580298042415
31.497218582879540 121.092953879523250 -261.618848216778815
29.935878774009446 119.710157747622787 -258.010312379306015
28.907045695112803 120.406510787846500 -258.912446338674215
28.545033261936641 123.151708223443862 -264.325250094883415
26.915816687889613 121.309202769517796 -259.814580298042415
26.142529391417888 122.360722516438614 -261.618848216778815
24.901996679496776 122.178907624000416 -260.716714257410615
23.527432255489078 120.253576717418241 -256.206044460569615
22.471889588748748 120.894163498046922 -257.108178419937815
21.672735238467403 121.916519299914512 -258.912446338674215
20.379737871845542 121.264384193613424 -257.108178419937815
19.505938155703053 123.155646575727843 -260.716714257410615
18.345647443246005 122.025062695419436 -258.010312379306015
17.315033854978370 123.047037620387329 -259.814580298042415
16.291336342307204 122.751527449172542 -258.912446338674215
15.239185525160160 123.756058968235749 -260.716714257410615
14.266747691273016 123.871929092644905 -260.716714257410615
13.053341816518373 123.571817709270562 -259.814580298042415
12.124371253494470 124.099937665283022 -260.716714257410615
10.840523943427579 122.919330239653107 -258.010312379306015
9.072242519037871 115.273770863124440 -241.771901110678357
8.715117859512590 123.088283059874257 -258.010312379306015
7.607498080518200 124.026246567035045 -259.814580298042415
6.541046188123446 122.358806371398771 -256.206044460569615
5.463449414052054 124.139174256364996 -259.814580298042415
4.441550969290830 122.884731413502351 -257.108178419937815
3.329289678605161 124.646342654149421 -260.716714257410615
2.350226974124259 124.668646178539177 -260.716714257410615
1.158900410646091 122.959511789123582 -257.108178419937815
0.000000000000007 120.807692790668483 -252.597508623096786
-0.962366097854211 122.529737751136651 -256.206044460569615
-2.132031140682111 123.378009179707888 -258.010312379306015
-2.960011128865911 117.750301915959739 -246.282570907519386
-4.218704518197319 122.029159691373266 -255.303910501201415
-5.213565755517291 122.854398869939999 -257.108178419937815
-6.438257679420515 124.092436121648632 -259.814580298042415
-7.361191936042782 123.176668079688142 -258.010312379306015
-8.581353295496514 123.962672769547581 -259.814580298042415
-9.749275542846652 123.876291076790451 -259.814580298042415
-10.535743093888788 121.646666211015045 -255.303910501201415
-11.640472744570969 121.112491043005392 -254.401776541833215
-12.769919498721887 122.733890437519676 -258.010312379306015
-13.779997181903104 121.321988775577182 -255.303910501201415
-14.732423049799921 121.210020187591169 -255.303910501201415
-15.874129355042275 121.065789139681897 -255.303910501201415
-16.705577560518687 120.082700206699158 -253.499642582464986
-18.344374400620612 123.334013291831013 -260.716714257410615
-19.235959772925170 121.451070152534356 -257.108178419937815
-18.772443006958408 112.784229661024725 -239.065499232573757
-21.106965580491760 119.825840686986609 -254.401776541833215
-22.203779513082367 120.504999718696496 -256.206044460569615
-23.174153730560032 119.443269761136108 -254.401776541833215
-23.256515630599246 115.028586202987341 -245.380436948151186
-25.144939510441336 118.602964666060259 -253.499642582464986
-26.168455853623094 118.823179601440302 -254.401776541833215
-26.513055336615796 115.207549998197720 -247.184704866887586
-28.705602867969120 119.567441026258734 -257.108178419937815
-29.435761765987419 118.500840554194255 -255.303910501201415
-30.227416834583529 116.964960175741822 -252.597508623096786
-28.253069291608213 105.885297105349622 -229.142025679523528
-27.867867408965257 100.624666582116106 -218.316418167105098
-22.617954854585534 79.243446685343670 -172.307586239326753
-27.278143604517584 92.266846855621381 -201.175872939109240
-30.638912540328281 100.718124463497318 -220.120686085841498
-35.599858660670321 113.183790643959597 -248.086838826255786
-34.798412365160999 107.098500856091832 -235.456963395100928
-31.542103086941314 94.543515737126185 -208.392944614054869
-16.707260341532116 48.548931690218083 -107.353941164816135
-7.754238248682183 21.970384257468798 -48.715233805882953
-8.403232165541304 23.112790241666382 -51.421635683987560
-7.831472364951884 21.024493338293968 -46.910965887146546
-7.102818241356086 18.532471847670454 -41.498162130937331
-6.933014354704397 17.672806065479939 -39.693894212200924
-7.099266246759433 17.606680011524716 -39.693894212200924
-7.264887540937765 17.538990030447277 -39.693894212200924
-7.234176305808281 17.084087030427739 -38.791760252832724
-7.566839994586934 17.410849915122508 -39.693894212200924
-7.178121316061491 16.167868913591231 -36.987492334096316
-7.508963683288715 16.492170377019914 -37.889626293464516
-7.456396628345714 16.041432609214205 -36.987492334096316
-7.607250170506119 15.970446320579169 -36.987492334096316
-7.732445847544507 15.910207165526094 -36.987492334096316
-7.497560114898535 15.064106746233072 -35.183224415359909
-8.030954777568237 15.761636215692203 -36.987492334096316
-8.154497412690278 15.698075766844600 -36.987492334096316
-8.504573788183329 16.001513804104505 -37.889626293464516
-9.040937494897976 16.692998876293910 -39.693894212200924
-8.570734523170428 15.474751066446940 -36.987492334096316
-8.692007342685203 15.406960089189322 -36.987492334096316
41.219076687765885 112.819425276424724 -257.349499702846288
40.860899719240095 115.195898152466583 -261.880300753952724
39.816650048867068 115.113562825354109 -260.974140543731437
38.192061607280564 113.879767443037892 -257.349499702846288
37.509171688433710 115.441360198572525 -260.067980333510150
36.728880651374268 116.135641788202989 -260.974140543731437
35.880162378256671 117.285505846351555 -262.786460964174012
34.475728983206849 115.942119617766707 -259.161820123288862
33.498203739771391 116.668401683822381 -260.067980333510150
32.694390702543025 117.335309195698471 -260.974140543731437
31.916128033285990 118.863629044126569 -263.692621174395356
30.555736578504053 117.473369609431188 -260.067980333510150
29.344631867882814 117.345828945567931 -259.161820123288862
28.336118699399037 118.028428703861550 -260.067980333510150
27.503760333494981 118.659349125883722 -260.974140543731437
26.200993618164624 118.087505367015652 -259.161820123288862
25.449470387712893 119.116843579930446 -260.974140543731437
24.494635441404604 120.180234516817762 -262.786460964174012
23.468789434623549 119.953841120209859 -261.880300753952724
22.259934098767605 119.753886372757080 -260.974140543731437
21.318712395363544 119.925020197056725 -260.974140543731437
19.837037913613884 118.035187790269191 -256.443339492625000
18.789879473540790 118.634629986629619 -257.349499702846288
17.920434039447642 119.196779179236955 -258.255659913067575
17.031988459494727 121.035612305366087 -261.880300753952724
15.858288972991994 119.488613657180949 -258.255659913067575
15.041583420565235 122.151349998184671 -263.692621174395356
13.936582175404599 121.005246352085436 -260.974140543731437
12.573387854378785 119.028246848105880 -256.443339492625000
11.720412516671219 119.965186838953514 -258.255659913067575
10.700729399995318 121.334217588315823 -260.974140543731437
9.556723019328009 121.429679290495287 -260.974140543731437
8.513119813871985 120.235356338726874 -258.255659913067575
7.405460178644327 120.732390641147191 -259.161820123288862
6.479588510108112 121.209160289099586 -260.067980333510150
5.281161307123697 119.997268043663581 -257.349499702846288
4.399658136547312 121.725679196060383 -260.974140543731437
3.240949712847779 121.338954380725383 -260.067980333510150
2.263950660909271 120.092087708140355 -257.349499702846288
1.163913652251773 123.491417494439503 -264.598781384616643
0.000000000000007 120.113425572226134 -257.349499702846288
-0.943358939847830 120.109720991289109 -257.349499702846288
-2.082615156801569 120.518367218339904 -258.255659913067575
-3.060975395820419 121.766696584439188 -260.974140543731437
