ply
format ascii 1.0
element vertex 781
property double x
property double y
property double z
end_header
221.055285065162394 849.860357313282634 -832.449358226732556
216.028906306073594 863.874905666677137 -844.144927722480134
207.538764401396577 864.461167645986052 -842.768978370039235
201.234586523663637 868.185468786040929 -844.832902398700526
193.357717770802140 871.460482291928997 -846.208851751141424
187.265550028611983 876.500802996571338 -849.648725132243612
181.025640329597536 888.182392443093590 -859.280370599329785
174.044360591149569 889.576756243718592 -859.280370599329785
167.111602305577577 899.026194115258704 -866.848092037754668
160.045585565242959 900.310943991898171 -866.848092037754668
152.515615987552763 907.504913406689070 -872.351889447518147
143.842406724468759 908.185213331118007 -871.663914771297755
135.841999686186938 903.545572848160873 -866.160117361534162
125.196684478353120 889.693966178787150 -851.712649160904903
116.964004228963134 881.297265859736626 -842.768978370039235
108.298116452257489 879.479291310326175 -840.017079665157439
97.982941075244668 850.743013881568345 -811.810117940119426
84.014093015889443 795.334584284888479 -758.148093194925082
86.303650558111329 883.367675784513949 -841.393029017598337
79.313286500338180 899.323326677214709 -855.840497218227597
71.688074096034725 910.883346606279019 -866.160117361534162
64.378106179671434 909.246516689702389 -864.096193332872872
55.894790237012977 911.261621412891486 -865.472142685313770
48.658625963298292 910.223108247094501 -864.096193332872872
40.046032015466359 909.916239703392876 -863.408218656652366
33.003260411768601 913.103737750780624 -866.160117361534162
24.376744680796527 912.648752014957267 -865.472142685313770
17.290213799728949 917.165690923491866 -869.599990742636351
8.590772574456151 911.482291267478331 -864.096193332872872
0.000000000000056 915.877182788214213 -868.224041390195453
-7.159009529740263 911.494661119960256 -864.096193332872872
-15.761738363558409 912.112334290343256 -864.784168009093264
-22.943129889418579 912.685916965178649 -865.472142685313770
-31.518771089992889 911.703849849169387 -864.784168009093264
-38.616690111420596 909.978021273582499 -863.408218656652366
-47.191188865181573 909.573658177080688 -863.408218656652366
-54.420021887073290 910.623854277182090 -864.784168009093264
-63.150263281446534 912.242527827982940 -866.848092037754668
-71.460312144974935 907.989356625004007 -863.408218656652366
-78.902471601619808 911.015249765699537 -866.848092037754668
-87.276659135031949 908.063944626724833 -864.784168009093264
-94.556019671938159 908.794151739574772 -866.160117361534162
-102.871165074492126 905.699338668111636 -864.096193332872872
-109.893700424814810 904.143032137663113 -863.408218656652366
-77.273166131590969 589.332279446949656 -563.451259824540557
-79.499359494463747 571.455714010158772 -546.939867595249893
-87.871132536793056 590.780540757739573 -566.203158529422240
-93.662182752712553 591.359748222708845 -567.579107881863138
-99.376179658980547 597.048869203609115 -573.770879967847122
-103.110269323574073 585.364800925165014 -563.451259824540557
-110.071617857046562 597.383894534021465 -575.834803996508413
-112.794067956456189 581.358544653675040 -561.387335795879153
-114.192497647960991 564.805225686959602 -546.251892919029501
-119.209477033341571 562.284008938416264 -544.875943566588603
-120.656245759075361 547.864147585199134 -531.804424718400242
-125.814308567851128 546.702673863522250 -531.804424718400242
-130.622357023246138 544.081273677596187 -530.428475365959343
-135.066445256286386 543.742928101527809 -531.116450042179849
-139.640266595043613 540.337876392151884 -529.052526013518445
-143.131320824803964 536.419681493401640 -526.300627308636763
-149.730125762163851 540.642158261060786 -531.804424718400242
-152.378160555829226 533.866599329979863 -526.300627308636763
-157.402892671403123 532.406779702522272 -526.300627308636763
-160.945862946029024 529.071174923280978 -524.236703279975359
-164.836272557520601 524.069332451944547 -520.796829898873170
-170.889437442359622 525.943608293490797 -524.236703279975359
-173.407127579492936 519.766213750949987 -519.420880546432386
-179.714972726117253 522.226251116738354 -523.548728603754967
-182.844788350736252 518.061237056256232 -520.796829898873170
-188.711118798879966 519.043198991246527 -523.548728603754967
-192.781812345358844 517.545072052889395 -523.548728603754967
-196.871749734179986 513.672184134861141 -521.484804575093676
-201.695126935068060 514.136951159939940 -523.548728603754967
-204.631957755116048 507.501659339902290 -518.732905870211880
-209.683615745141168 506.221028939348514 -519.420880546432386
-210.540133838217656 497.207396922590135 -511.853159108007503
-217.820211912106714 501.191385148206109 -518.044931193991488
-219.688382153500299 494.822086184186901 -513.229108460448401
-223.439964202943287 490.748139702846458 -511.165184431787054
-228.816884668884313 492.268694681897557 -514.605057812889299
-231.885707613200310 486.814310419838080 -511.165184431787054
-238.239787671424608 490.199925309143623 -516.668981841550590
-237.351912431834677 476.887746213704020 -504.973412345803069
-245.460108744835026 481.742588105049947 -512.541133784227895
-246.225190851429744 474.003670131316426 -506.349361698243968
-249.319168657098174 469.098654236806112 -503.597462993362228
-254.378223750612364 469.678659499518119 -506.349361698243968
-256.683748186671266 463.451189072876673 -502.221513640921330
-262.098715621074064 464.581343732985658 -505.661387022023519
310.466826082412240 849.768886172300768 -871.228552100882894
303.889070330945003 856.730386164446600 -875.390471935759706
295.973720145569018 855.686989910397301 -871.922205406695639
287.896034605131547 858.438431675425932 -871.922205406695639
280.460539663932934 863.168785750973370 -874.003165324134102
273.238246479039901 863.971309584115147 -872.615858712508498
265.294212167831631 867.196907979134266 -873.309512018321243
257.653943515143851 866.492028452052296 -870.534898795070035
247.289482947301394 861.266142889529078 -862.904712431129155
234.330610227485437 840.977733924250060 -840.707806645119490
225.647115974352829 840.366195425712590 -837.933193421868168
222.666493803851381 856.054746350237224 -851.806259538124323
215.637076570030644 862.308023335745361 -855.968179373001135
209.013933387736870 870.605688685633822 -862.211059125316410
202.495129494387896 873.623823637802388 -863.598365736942014
194.564599720934098 876.899882065865768 -864.985672348567618
186.768523682491150 874.174459515782701 -860.823752513690806
179.384567951920133 880.130651331039303 -864.985672348567618
173.987933534156980 889.288345874354263 -872.615858712508498
165.467348391226977 890.180444817285434 -871.922205406695639
158.849068068658454 893.580125437620154 -874.003165324134102
149.823437403896662 891.485797746850153 -870.534898795070035
141.527533156819601 893.569676837091833 -871.228552100882894
134.505160435333437 894.653660262151220 -871.228552100882894
125.465166601749246 891.601899493536393 -867.066632266006081
119.122112976159968 897.558126206218958 -871.922205406695639
110.569628462830195 897.926036634304864 -871.228552100882894
103.596411739974954 899.482324002715131 -871.922205406695639
94.584839939436762 895.404469088979795 -867.066632266006081
82.996930516908904 849.521487606179448 -821.979167388173664
79.289852182545332 899.057607910967704 -869.147592183444431
70.700008216376048 898.328779246507224 -867.760285571818827
63.795062230030553 901.011874328393333 -869.841245489257290
55.080021285041795 897.978314093876065 -866.372978960193223
48.064141121251971 899.102493350542886 -867.066632266006081
39.683302436916826 901.674386078156886 -869.147592183444431
32.574399357399358 901.238406058259216 -868.453938877631686
24.098339028178174 902.225433612799520 -869.147592183444431
16.957299838848140 899.506148566987804 -866.372978960193223
8.499392453863340 901.786846419841140 -868.453938877631686
0.000000000000055 898.225354035220107 -864.985672348567618
-7.065887377701401 899.638224267514261 -866.372978960193223
-15.569229399928837 900.972078302212367 -867.760285571818827
-22.554387441986481 897.221603298825585 -864.292019042754760
-31.133810635920078 900.568582962786991 -867.760285571818827
-38.175286560701537 899.576624144322182 -867.066632266006081
-46.689096931736557 899.896224579264754 -867.760285571818827
-53.454563344417650 894.468594709623062 -862.904712431129155
-61.832487807879311 893.206489549582670 -862.211059125316410
-70.700008216375934 898.328779246507224 -867.760285571818827
-77.628907163269986 896.310556727006883 -866.372978960193223
-86.210689201285177 896.973134409138765 -867.760285571818827
-92.507342551852588 889.103963933488672 -860.823752513690806
-101.370466258118157 892.486871165233538 -864.985672348567618
-108.203023067420190 890.233097843230325 -863.598365736942014
-116.869278291860482 891.316373083158965 -865.679325654380364
-124.163738992513203 892.511317969533934 -867.760285571818827
-131.722052351820224 885.601710954887722 -862.211059125316410
-140.400721587099781 886.455268582019357 -864.292019042754760
-147.003727317837615 883.193633172625937 -862.211059125316410
-157.320283755085683 893.119154725471617 -873.309512018321243
-102.983551905939947 558.915336289649417 -547.292458286303031
-108.109358450615019 557.212807650090326 -546.598804980490172
-113.053294503450516 559.170635828682521 -549.373418203741380
-119.363996693670927 563.012843056575321 -554.228991344431051
-122.852634167949205 557.837294485496841 -550.067071509554239
-128.104592732341814 556.654677660920925 -550.067071509554239
-133.345172306094184 555.422615549241868 -550.067071509554239
-136.487754006843090 549.464753239500510 -545.211498368864568
-140.218364737430051 542.574826594411320 -539.662271922362152
-141.318452182572656 529.625512236447662 -527.870165723544460
-147.072712426021639 531.046830172404952 -530.644778946795668
-150.843569540311734 528.490061879808422 -529.257472335170064
-155.613480723715043 526.354190474580378 -528.563819029357319
-159.113706949206744 523.048398642249367 -526.482859111918856
-165.332911003466137 525.648311245861578 -530.644778946795668
-168.721499258143723 519.271380634315847 -525.789205806106111
-174.390329956988637 522.713240117369651 -530.644778946795668
-178.137014030910478 517.640926692652897 -527.176512417731715
-183.155952086348208 518.942869348060754 -529.951125640982923
-186.561923057783588 513.131912789261150 -525.789205806106111
-189.831957067410457 509.625844384065431 -523.708245888667648
-194.626565400888950 507.814112868546033 -523.708245888667648
-196.504419371619974 500.905423945635050 -518.159019442165231
-204.179572651301186 506.379712438913089 -525.789205806106111
-207.289048165756640 500.440031413179497 -521.627285971229185
-212.336535021034592 501.449742263851363 -524.401899194480393
-215.330443506814333 495.462575756310684 -520.239979359603581
-218.922829351279972 493.097769081181752 -519.546326053790835
-222.664939129243805 489.045928039423416 -517.465366136352372
-224.677282173647910 483.362897717740850 -513.303446301475560
-228.913063575805381 480.573625419959001 -512.609792995662815
-232.050664118284629 477.465243444573673 -511.222486384037154
-236.861245558512877 475.901897745230599 -511.916139689849956
-241.335929181715699 473.648429967882294 -511.916139689849956
-244.384385633884420 470.459969236634834 -510.528833078224352
-250.159661309571305 470.680056799211286 -513.303446301475560
-251.790388256241584 464.900533887661652 -509.141526466598748
-256.160724956427202 462.506852940644933 -509.141526466598748
-254.830274229681237 451.697716049209873 -499.430380185219462
307.635280569429938 842.018752906615077 -879.716405384460927
298.731481617868951 842.190004817335421 -876.914760781325640
291.407852411277190 842.486650312801885 -874.813527328974260
285.043395733509044 849.932531820116424 -879.716405384460927
276.579313993934989 851.223601402358781 -878.315583082893340
270.100577420544766 854.050092183396828 -879.015994233677134
261.204282594547465 853.827697053564975 -876.214349630541847
255.507496005768274 859.273510345981322 -879.716405384460927
246.806887702494151 859.585347814388115 -877.615171932109433
235.641866151394510 845.683636556489546 -861.505715464081959
227.661138111494751 847.866916689464574 -861.505715464081959
221.174724550736329 850.319549609260889 -862.206126614865752
215.575084733097526 862.060125065099896 -872.011882725838973
207.107667031673003 862.665517870990016 -870.611060424271386
201.454133010832550 869.132657205168130 -875.513938479758053
192.326305966707508 866.811923969042027 -871.311471575055180
186.556399965676235 873.181609479593476 -876.214349630541847
179.173939033171763 879.097223709233845 -880.416816535244720
171.167719932388252 874.873650337799177 -874.813527328974260
163.175622347891391 877.851428074765295 -876.214349630541847
156.151110627770180 878.403195678030556 -875.513938479758053
147.983835422112918 880.539719692012341 -876.214349630541847
139.566841075173926 881.190354236790199 -875.513938479758053
132.429527991143459 880.847705475411090 -874.113116178190467
124.818172250872735 887.004118230198515 -879.015994233677134
117.190561278682978 883.004321887747551 -874.113116178190467
109.037820551239193 885.486361959967326 -875.513938479758053
99.385025147214336 862.916696524823692 -852.400370503892418
92.447577460208350 875.171687844726762 -863.606948916433339
86.751028449155839 887.946846714754770 -875.513938479758053
77.814271704273352 882.326187450993871 -869.210238122703799
69.775207269580662 886.578069076316865 -872.712293876622880
62.608321845828584 884.250903486238258 -869.910649273487593
54.708767163446623 891.925699326623544 -876.914760781325640
47.587681895559058 890.189701655801628 -874.813527328974260
39.038943377608192 887.033415606014046 -871.311471575055180
32.148408594453983 889.452486938764309 -873.412705027406673
23.630812947317725 884.721574922107720 -868.509826971920006
16.775738698910150 889.875171744787167 -873.412705027406673
8.341154731720509 884.997799766161734 -868.509826971920006
0.000000000000054 887.178325629591654 -870.611060424271386
-6.967810640107392 887.150962960537640 -870.611060424271386
-15.316246319659060 886.332259866047593 -869.910649273487593
-22.366621375639497 889.752201989378250 -873.412705027406673
-30.578599680933777 884.508693962223902 -868.509826971920006
-37.645546957265367 887.093643476267971 -871.311471575055180
-45.893468740386417 884.561106690571137 -869.210238122703799
-53.052198582142665 887.735724380969259 -872.712293876622880
-61.416430607102953 887.196299681240930 -872.712293876622880
-69.439211086901992 882.308832788629843 -868.509826971920006
-76.551393533263834 883.869484491370486 -870.611060424271386
-84.263579781844058 876.714569547003066 -864.307360067217132
-91.959100274078907 883.834713202485432 -872.011882725838973
-99.962638426156360 880.092059310589548 -869.210238122703799
-106.699476321115753 877.862768070829134 -867.809415821136213
-115.153859039394646 878.233539948804264 -869.210238122703799
-121.457788279445467 873.060456897878339 -865.007771218000926
-130.415705279826852 876.818798895726673 -869.910649273487593
-138.226999400852378 872.730926836116964 -867.109004670352419
-145.545824974797512 874.434603108194096 -869.910649273487593
-153.037689426670653 868.806542674881598 -865.708182368784719
-159.985823591186829 868.279727579362884 -866.408593519568626
-169.249487557498270 872.338745755605032 -872.011882725838973
-175.246876400748249 866.785065701964754 -867.809415821136213
-184.000345985952691 867.887811957268809 -870.611060424271386
-189.736416844481710 861.536670782359693 -865.708182368784719
-198.648016339301790 863.188002434656937 -869.210238122703799
-131.462549708760861 547.580928077402405 -552.624397968423295
-133.178169161208558 536.141211990220313 -542.118230706666168
-138.760947961643296 536.935353791550938 -544.219464159017662
-141.685653900426018 531.001690611660365 -539.316586103530994
-148.207848329953464 535.145553271029371 -544.919875309801455
-151.034992860655052 529.160725685509760 -540.016997254314788
-158.038979950821840 534.558310556227980 -547.021108762152835
-160.362957305170113 527.155011521292522 -540.717408405098581
-164.895779777731406 524.258525696174729 -539.316586103530994
-170.049960996270954 523.359965455517226 -540.016997254314788
-171.444547816547527 513.883625954189711 -531.612063444909040
-176.512353937141199 512.919894620377590 -532.312474595692947
-178.397413492579744 505.460317218990497 -526.008774238638694
-184.372667025719267 507.110442186330886 -529.510829992557660
-188.598915605929079 506.315601969270858 -530.211241143341454
-192.596083450200069 502.516236967788075 -528.110007690990074
-197.058173974061532 502.316988554638954 -529.510829992557660
-200.982849562490685 498.451614160329598 -527.409596540206280
-206.491058535410417 498.513514024964479 -529.510829992557660
-209.286738264476497 494.247402838929986 -526.709185389422487
-214.220035062031656 492.907591801261276 -527.409596540206280
-216.926191053523610 488.600577567609946 -524.607951937070993
-219.155390417064865 481.337797097663952 -519.004662730800533
-222.026463899844146 477.660019394873132 -516.903429278449153
-225.904505101681565 474.257542665167534 -515.502606976881566
-231.182243577698785 475.678389584884997 -519.004662730800533
-235.019026857394806 472.200509728560462 -517.603840429232946
-239.458908055098220 469.964568585727761 -517.603840429232946
-242.484546387794865 466.802622999265736 -516.203018127665359
-247.543163792829546 465.757068043358345 -517.603840429232946
-250.173808631047109 461.915714903785329 -515.502606976881566
-253.132846689102081 457.039916318154781 -512.700962373746279
-253.207555821848445 448.821377275001169 -505.696850865908232
301.379219838507538 824.895487834387836 -878.226622233691955
294.537037258944508 830.364940061129573 -881.055049358438168
288.699783329691115 834.657375876706396 -883.176369701997828
279.021926450681406 831.977923120409855 -877.519515452505402
272.479491243839959 838.605644419054784 -881.762156139624722
264.605444501030775 836.674643299539753 -877.519515452505402
258.363184870757152 844.540682681088583 -883.176369701997828
250.513043203806603 842.477130363054926 -878.933729014878509
242.561874853447733 844.800708373034240 -878.933729014878509
235.350017436193468 844.636234892147854 -876.812408671318849
226.829062835909610 844.768060625508610 -874.691088327759189
221.611350952096700 851.998186106746743 -880.347942577251615
210.827036722263728 843.073223739735113 -869.034234078266877
205.843287374382442 857.398997575170597 -881.762156139624722
198.145018291537639 854.856158500508400 -877.519515452505402
190.385840701065774 858.066274631830879 -878.933729014878509
184.084021231246140 861.609582773621582 -881.055049358438168
174.684540206062252 857.070482173430491 -874.691088327759189
168.626657178679977 861.885752573242144 -878.226622233691955
159.203966405587295 856.484732543860787 -871.155554421826423
153.586149904999530 863.974417767886848 -877.519515452505402
145.905454742465793 868.172850460318386 -880.347942577251615
137.274295962175358 866.715794057134531 -877.519515452505402
130.673216726740463 869.165697913974554 -878.933729014878509
121.391983712637995 862.656354691896354 -871.155554421826423
115.264232540525995 868.489871384142020 -876.105301890132296
105.172678642156896 854.097891150208625 -860.548952704028238
94.658897763969009 821.881799940910355 -827.314933988260577
87.577283773195987 829.066173092901636 -833.678895018939443
82.919587812209585 848.729840383295027 -852.770778110976266
73.860890234679204 837.499294861637964 -840.749962830804975
65.964481816924263 838.158211281512649 -840.749962830804975
61.876676830814816 873.917488590527682 -876.105301890132296
53.464408282931025 871.638719336719191 -873.276874765386083
46.579248647406210 871.325641534462875 -872.569767984199530
38.427431108558359 873.138781946144604 -873.983981546572636
31.466536381422902 870.587076109079817 -871.155554421826423
23.335690478585782 873.672390287050121 -873.983981546572636
16.406595090725233 870.293814546288218 -870.448447640639870
8.256975699675099 876.066391520811067 -876.105301890132296
0.000000000000054 873.983981546572750 -873.983981546572636
-6.847522929656289 871.835770905121763 -871.862661203012976
-15.112825005764877 874.560519644206806 -874.691088327759189
-21.874452567714169 870.173550692540289 -870.448447640639870
-30.270000091879737 875.582221778421967 -876.105301890132296
-36.965919662806265 871.078653614863356 -871.862661203012976
-45.283791371573493 872.810047054349525 -873.983981546572636
-52.010811330824659 870.309930717046086 -871.862661203012976
-60.015526552144138 866.959420372527575 -869.034234078266877
-68.682950790035406 872.699634622802819 -875.398195108945743
-75.290874184493504 869.315411265977104 -872.569767984199530
-83.683464740481114 870.678802848116106 -874.691088327759189
-90.226403485804042 867.181466657364126 -871.862661203012976
-98.395268049545237 866.292601391388075 -871.862661203012976
-105.110692419218537 864.791155331246841 -871.155554421826423
-113.256368108666038 863.762117184375370 -871.155554421826423
-120.036777075320515 862.845972436199077 -871.155554421826423
-127.955399648320281 860.277522489596777 -869.741340859453430
-136.499984864886812 861.826986193798575 -872.569767984199530
-143.148380984059742 860.030837250410855 -871.862661203012976
-151.370169296661771 859.339904721699781 -872.569767984199530
-158.242802949781918 858.819955121325961 -873.276874765386083
-165.521762279194604 853.125457486757909 -869.034234078266877
-173.197914323729890 856.650735407324532 -873.983981546572636
-180.677231161443956 852.213434615903225 -871.155554421826423
-187.973185964270925 853.530363466023118 -873.983981546572636
-195.691885847241338 850.342687281751410 -872.569767984199530
-135.358055851638625 563.806878918716961 -579.827560572968878
-136.884045662870960 551.060121985763999 -567.806745292797586
-140.302249514924654 542.899418659710818 -560.735677480932168
-141.462745498215895 530.166286778126846 -548.714862200760876
-146.453088291038711 528.809505332513140 -548.714862200760876
-150.213639836611947 526.283063006056295 -547.300648638387770
-156.369840927119782 528.912537995108664 -551.543289325506976
-159.490076529478017 524.285623957610824 -548.007755419574323
-164.636355807911002 523.433730615720719 -548.714862200760876
-167.377137363898441 515.133860164391422 -541.643794388895344
-170.970219321757384 512.461885514493815 -540.229580826522238
-174.411825482337179 506.816056505630797 -535.986940139403032
-178.622268244308998 506.097406916156956 -536.694046920589471
-183.625732991674880 505.056026776505405 -537.401153701776025
-186.846255586828903 501.610383438362817 -535.279833358216479
-192.324629873205879 501.807967995860338 -537.401153701776025
-195.743374889790971 498.965460915637721 -535.986940139403032
-200.701679510629390 497.754292640066183 -536.694046920589471
-204.842723905335532 494.534082205708501 -535.279833358216479
-209.547589277638281 494.863423408853521 -537.401153701776025
-210.256361659329542 483.787414451617678 -527.501658765164393
-214.910284117188951 484.059985725601166 -529.622979108724053
-220.341853025406976 483.943661809233788 -531.744299452283713
-218.770947600997374 470.656214753148276 -519.016377390925868
-228.062325614200120 478.787610152395928 -530.330085889910606
-226.870241707624587 466.806055474352206 -519.016377390925868
-236.930861464209585 476.041770106182639 -531.744299452283713
-238.838702154316678 468.747345969277603 -526.087445202791287
-239.905166153817987 461.837104672966859 -520.430590953298974
-249.888737399141377 470.170308421387858 -532.451406233470266
-246.838675979622053 455.757795370114479 -518.309270609739315
-251.123065594848896 453.411188576379516 -518.309270609739315
-254.328923021061485 450.809049282450701 -517.602163828552762
295.632518762658378 809.166374891760029 -875.120101240152053
287.758766130414017 811.255497147802316 -874.407462721226807
280.919726251290570 812.164522053490600 -872.982185683376429
274.145147169433301 817.436511448784017 -875.832739759077299
265.778572630470990 817.982337518737950 -873.694824202301675
259.980638250629625 822.051141779453701 -875.832739759077299
251.400656869978008 821.781487504323309 -872.982185683376429
245.738512604873051 826.420350299321285 -875.832739759077299
238.326092951400057 830.048218710239667 -877.258016796927677
231.046418412795873 829.191257597452818 -874.407462721226807
223.403253652265334 832.009491930835793 -875.120101240152053
216.155452912673582 831.022657492345388 -872.269547164451183
208.654146716019397 834.384084951480190 -873.694824202301675
200.453572949205807 834.949221319129379 -872.269547164451183
194.048188742245998 837.181225258503105 -872.982185683376429
186.757275056715685 841.712380911376727 -875.832739759077299
179.554489033666329 840.409000991382641 -872.982185683376429
171.906169184145568 843.438710360069990 -874.407462721226807
164.333684963727251 839.943482886072275 -869.418993088750426
156.794838101169546 843.524115681989201 -871.556908645526050
150.410615729484931 846.110956172623901 -872.982185683376429
142.313376624397591 846.799114266946731 -872.269547164451183
134.765255371631639 850.874335228207883 -875.120101240152053
127.452625888977636 847.744115486313603 -870.844270126600804
119.750550230732216 850.991720993166723 -872.982185683376429
112.601769545858161 848.428816078098976 -869.418993088750426
104.600633747938687 849.452365866428522 -869.418993088750426
96.962687422642531 841.884597734701742 -860.867330861647929
89.171313694435611 844.156345220416142 -862.292607899498307
82.402215661792340 843.434237809427032 -860.867330861647929
73.956450206302378 838.582837296573871 -855.166222710246302
66.269991633939185 842.040081565415562 -858.016776785947059
60.397854118452948 853.031282397012205 -868.706354569825180
52.355660266385435 853.562624748808844 -868.706354569825180
45.687698170355340 854.648026202855931 -869.418993088750426
37.445850312640040 850.835540854939495 -865.143161975199178
30.965034467211034 856.711984174443728 -870.844270126600804
22.702147083737803 849.952956202365954 -863.717884937348799
16.158228345843924 857.119110068368173 -870.844270126600804
8.066249645601671 855.830327853131166 -869.418993088750426
0.000000000000052 853.763745163131489 -867.281077531974802
-6.732924628327559 857.244962022884692 -870.844270126600804
-14.727002487468463 852.233446978240181 -865.855800494124423
-21.543312160441303 857.000666796021505 -870.844270126600804
-29.498084977657697 853.254004114617373 -867.281077531974802
-36.287779813898879 855.098714472616393 -869.418993088750426
-43.981679423326675 847.712846568332793 -862.292607899498307
-50.889273995205876 851.542965621070380 -866.568439013049556
-59.251632864812521 855.924528796264553 -871.556908645526050
-66.655282282973602 846.935663434981848 -863.005246418423553
-73.728703417373524 851.278442807370993 -867.993716050899934
-81.345718863359480 846.355888064799842 -863.717884937348799
-88.571199985243410 851.273021415407698 -869.418993088750426
-96.352689815155514 848.309313706009561 -867.281077531974802
-102.842966510326420 846.133592874100941 -865.855800494124423
-111.177718274554039 847.909066167633910 -868.706354569825180
-117.157033526626265 842.145857161687559 -863.717884937348799
-125.501584615699670 843.779884072519735 -866.568439013049556
-133.338587358739858 841.866707900873394 -865.855800494124423
-140.407141498289519 843.561559191908827 -868.706354569825180
-148.107770159457743 840.819017966036313 -867.281077531974802
-154.071303710873849 836.180272795396831 -863.717884937348799
-162.346012045602293 836.757136284817193 -865.855800494124423
-168.634766746594863 834.081042562072412 -864.430523456273932
-177.652167605287275 837.944897365517136 -870.131631607675558
-182.568114436895542 828.987540288054333 -862.292607899498307
-190.530246878603720 827.913745313274944 -863.005246418423553
-199.143418877642091 829.492036866063245 -866.568439013049556
-204.637294684236963 823.817355963200612 -862.292607899498307
-213.270041356444040 825.248218544275119 -865.855800494124423
-219.383161353848806 822.192129998520045 -864.430523456273932
-227.871241993653769 822.792336879267623 -867.281077531974802
-233.171077917468807 816.929735703800588 -863.005246418423553
-240.661096032286025 814.023153981765290 -862.292607899498307
-248.271956752161401 816.134900611987973 -866.568439013049556
-254.900269511665101 810.412732659819653 -863.005246418423553
-263.610721303958144 811.310377180085993 -866.568439013049556
-169.400144502037818 507.755782277893957 -543.743189939931653
-175.319438204661793 509.453450498215886 -547.306382534557656
-179.081744478304699 507.399258767275342 -546.593744015632410
-179.541105966197250 493.821405883554633 -533.766250674978778
-186.842291806393206 501.599742211339219 -543.743189939931653
-195.076277694939108 508.987489427798153 -553.720129204884529
-197.018194276938459 502.215077120785793 -548.019021053482788
-199.643886568627011 495.130891685525739 -542.317912902081162
-204.301449437660324 493.227330044880773 -542.317912902081162
-209.263092972609286 494.191562587456644 -545.168466977782032
-210.276280512932914 483.833246552047626 -535.904166231754289
-214.639107966169234 483.449193532333481 -537.329443269604781
-216.569631643439777 475.658614716824161 -530.915696599277908
-222.072945684333121 477.760018690860306 -535.191527712829156
-227.169169184053004 476.912542749085333 -536.616804750679535
-229.374534360151245 471.958864260909252 -533.053612156053532
-235.687889270043001 473.544388887682260 -537.329443269604781
-238.866451926530686 468.801807963750207 -534.478889193903910
-242.541007658768507 466.911315572796696 -534.478889193903910
-244.296778509932864 459.648933736864251 -528.777781042502284
-248.567473123136153 458.949810444912487 -530.203058080352662
-251.182394615696097 453.518309130183241 -526.639865485726659
-255.081239788275411 452.142563389137138 -527.352504004651905
291.596908095542915 798.120633145717534 -879.604284969212017
282.900626419632601 797.559328654720616 -876.008192226083565
278.217764977775005 804.352905846984640 -881.042722066463284
270.182837011071399 805.621832157278504 -879.604284969212017
262.792842963339069 808.793206475750139 -880.323503517837594
255.175533796035353 806.857542633578873 -876.008192226083565
248.779366806509472 813.212983052676009 -880.323503517837594
242.978880086008957 817.139686683504124 -882.481159163714665
233.924651969063746 814.718767361026607 -877.446629323334946
228.264679736503552 819.208010909848895 -880.323503517837594
219.632929161411283 817.967862219691824 -876.727410774709256
214.076411790773847 823.029658681184287 -880.323503517837594
205.467376876913590 821.640556591259383 -876.727410774709256
197.876780391097952 824.216107869271923 -877.446629323334946
192.024898129894126 828.452151697539762 -880.323503517837594
183.305524878928196 826.155391982434367 -876.008192226083565
177.827485799223268 832.325721810904838 -881.042722066463284
169.142687294998268 829.879990438919208 -876.727410774709256
163.286696159367864 834.592106367798124 -880.323503517837594
154.397939366563634 830.629291400955481 -874.569755128832185
147.383084420680149 829.080061125013231 -871.692880934329423
140.253663650624304 834.543322413741862 -876.008192226083565
132.382165509397083 835.828098000917748 -876.008192226083565
126.536637992741120 841.651472486807165 -881.042722066463284
117.824234823129530 837.302610916152958 -875.288973677457875
111.518735525064386 840.268400165095500 -877.446629323334946
103.934211081842193 844.040407161218013 -880.323503517837594
97.222500707464050 844.140442829265567 -879.604284969212017
89.481423752893505 847.092058093963828 -881.761940615088974
81.542091393681559 834.630369482961896 -868.096788191200972
74.160681197509689 840.898586681418237 -873.850536580206494
66.068686017313212 839.482251186023973 -871.692880934329423
59.522508398104115 840.668305379559342 -872.412099482955114
51.852089483454492 845.352830487054121 -876.727410774709256
44.914462983892747 840.183652807707745 -870.973662385703733
37.238427786294906 846.122536452184931 -876.727410774709256
30.340957604506265 839.445601736170829 -869.535225288452352
22.613648627076987 846.639634137243434 -876.727410774709256
15.898049430865161 843.317824723709009 -873.131318031580804
7.936281596030653 842.040697806725689 -871.692880934329423
0.000000000000052 846.246800379646402 -876.008192226083565
-6.613597913838675 842.052125257720036 -871.692880934329423
-14.609363041108125 845.425797495082179 -875.288973677457875
-21.109122988793700 839.728466177730752 -869.535225288452352
-29.166354025260535 843.658440075934095 -873.850536580206494
-35.732548247974435 842.015031737230061 -872.412099482955114
-43.594650719971369 840.253167717348106 -870.973662385703733
-50.441254518693405 844.046143526077003 -875.288973677457875
-58.057971438334988 838.681390597337327 -870.254443837078043
-66.341246603193113 842.945461793227082 -875.288973677457875
-72.539957945143641 837.553077412491348 -870.254443837078043
-80.762728064690705 840.290200748547363 -873.850536580206494
-87.215990977808403 838.247874792117386 -872.412099482955114
-94.720246599942655 833.936940851469672 -868.816006739826662
-101.853795274569961 837.995253033483095 -873.850536580206494
-109.385766682341199 834.242550747533301 -870.973662385703733
-115.742982324995836 831.981402451446684 -869.535225288452352
-123.681181598297613 831.540839827044692 -870.254443837078043
-131.730036615262208 831.710718207809691 -871.692880934329423
-138.714444815404192 833.391892337241643 -874.569755128832185
-145.719001603128589 827.257798122415920 -869.535225288452352
-152.841202285136433 829.504230463274098 -873.131318031580804
-159.725861022187473 823.252461674328629 -868.096788191200972
-167.425849524475041 828.101641300693473 -874.569755128832185
-174.358385179664424 822.408874282955253 -870.254443837078043
-180.662693836479974 820.335591717381590 -869.535225288452352
-188.541856145540152 819.273563263829715 -870.254443837078043
-196.254839568219779 817.460238132638665 -870.254443837078043
-203.506513662368235 819.265121078319567 -873.850536580206494
-210.523382516890990 814.620024823893573 -870.973662385703733
-217.810436540807757 816.297958559126414 -874.569755128832185
-224.752319233599508 811.530600980349504 -871.692880934329423
-230.165606748306089 806.399875869475295 -868.096788191200972
-238.740313976272631 807.526212460573788 -871.692880934329423
-244.468559764020569 803.632139271113260 -869.535225288452352
-253.073959048002649 804.606284293258796 -873.131318031580804
-259.787042471928203 799.542303787302103 -870.254443837078043
-266.498322246290059 798.795446637198552 -871.692880934329423
-273.788759696695649 795.591348931208017 -870.973662385703733
-279.335098017173664 791.450977286905299 -868.816006739826662
-288.206244305441430 792.700991683362759 -873.131318031580804
-295.635766309709993 793.668407381032580 -876.727410774709256
-202.399980864191008 528.096287962806514 -585.443898581307053
-193.093329981736986 492.210285269265114 -547.325315504145806
-198.243299797505102 491.657337905404518 -548.763752601397186
-202.070541009783341 487.841440661887646 -546.606096955520115
-205.083020554049511 484.319986616211736 -544.448441309643044
-211.300052347153695 486.188884806021406 -548.763752601397186
-213.420439194560288 480.704286323204315 -544.448441309643044
-219.093030610467196 481.200834315785642 -547.325315504145806
-219.351270850630897 471.904702027171140 -538.694692920637635
-223.789060018043472 469.816436957436110 -538.694692920637635
-227.168348567355139 467.419437318763528 -537.975474372011945
-230.944364764658275 464.013693780550796 -536.537037274760564
-236.253545030955451 463.673689440587395 -538.694692920637635
-237.325684996029509 456.871392060060145 -532.940944531632113
-246.512105562455844 463.817112800794121 -543.729222761017354
-246.507567137968209 455.146442894248139 -535.817818726134874
-251.459461252273542 454.018562313648715 -537.256255823386255
-255.358911359224663 452.634748294516726 -537.975474372011945
285.433490706712689 781.250939221861813 -874.656328135765307
280.361516228296011 790.401016404895813 -881.902859437635811
271.892507423326947 786.066009988421001 -874.656328135765307
266.444080744115467 794.473738121789893 -881.178206307448818
257.666932198659538 793.017275302266512 -876.830287526326515
251.222912088399966 794.359468893750886 -876.105634396139408
245.136350526986490 801.304647670970098 -881.178206307448818
237.853369112995011 799.902557147394077 -877.554940656513509
231.445073319407584 806.082827352062850 -881.902859437635811
223.627289903305126 802.565108006721857 -876.105634396139408
217.125697674349709 808.630306201147505 -880.453553177261711
210.074211981167878 807.642960465720989 -877.554940656513509
201.951603653079616 807.581381298385054 -875.380981265952414
194.814083145644162 811.459055736926757 -877.554940656513509
188.434955621486552 812.964078929242191 -877.554940656513509
181.212501016705801 816.722163221517121 -879.728900047074717
173.928573429961176 814.076770939004746 -875.380981265952414
166.936584062483576 819.055987587920981 -879.004246916887610
160.234019879839650 818.989245962662153 -877.554940656513509
152.256354346018696 819.108002610521112 -876.105634396139408
146.300908558705856 822.992453219938284 -879.004246916887610
137.966949353642150 820.936817619911380 -875.380981265952414
130.870596059830007 826.284424099177158 -879.728900047074717
124.069647048283954 825.242418208526828 -877.554940656513509
116.094474931806005 825.010297068858563 -876.105634396139408
109.611345199427305 825.896646308065556 -876.105634396139408
101.738479172753628 826.209065245276406 -875.380981265952414
95.561762561637948 829.720980013149529 -878.279593786700616
87.665307310412871 829.899463804811489 -877.554940656513509
81.479686977183988 833.991624261831021 -881.178206307448818
73.313301350653006 831.290253746795202 -877.554940656513509
64.610359280273144 820.952453092955352 -865.960490573520815
58.793397749934606 830.370684705858480 -875.380981265952414
50.964843096331045 830.887912059156406 -875.380981265952414
44.584704147707399 834.015083373154312 -878.279593786700616
36.601237253672487 831.644447507081281 -875.380981265952414
30.068455319944480 831.906260123417269 -875.380981265952414
22.245103770535597 832.841565207678627 -876.105634396139408
15.716351290077574 833.679580641523330 -876.830287526326515
7.878008610288673 835.857925058087517 -879.004246916887610
0.000000000000051 831.760366723529501 -874.656328135765307
-6.543387946508753 833.112898383838115 -876.105634396139408
-14.371072298284659 831.636206482773105 -874.656328135765307
-20.954169889075906 833.564376422576743 -876.830287526326515
-28.761663464224004 831.952465200163260 -875.380981265952414
-35.177978233005831 828.946938034151458 -872.482368745204212
-43.131761450679733 831.331335143828142 -875.380981265952414
-49.495189232844488 828.215396181187998 -872.482368745204212
-57.584162966132759 831.836949799652302 -876.830287526326515
-65.205098989129112 828.509337598413595 -873.931675005578313
-71.710118133174177 827.971670034229078 -873.931675005578313
-79.642124724861759 828.630961047900882 -875.380981265952414
-85.862396683709704 825.238247456143199 -872.482368745204212
-94.102780749001894 828.500641841516426 -876.830287526326515
-100.191109579724454 824.315618260805309 -873.207021875391206
-107.955536459792384 823.334743039055979 -873.207021875391206
-114.608502710796273 823.826558662956472 -874.656328135765307
-122.063535042002911 820.664980148298355 -872.482368745204212
-129.792584560160975 819.478127360304029 -872.482368745204212
-136.450968290171204 819.792998673823035 -873.931675005578313
-144.768885257599891 821.863915737036564 -877.554940656513509
-150.594901013050247 817.313038688857432 -873.931675005578313
-158.553598492224040 817.210434369890322 -875.380981265952414
-164.557311829065128 813.913624453542184 -873.207021875391206
-171.935001263264155 810.978323142047998 -871.757715615017219
-178.891889774870776 812.294896835401573 -874.656328135765307
-186.230434216246692 809.229709241534351 -873.207021875391206
-194.170601450695443 808.778761580900778 -874.656328135765307
-199.686040239996146 803.884873219771748 -871.033062484830111
-207.425919751059240 802.634395650419265 -871.757715615017219
-214.256309133839125 802.977995600308418 -873.931675005578313
-221.630644823701516 800.258929486288366 -873.207021875391206
-228.665507807398654 801.144183601505233 -876.105634396139408
-235.228981831882606 795.649321205701199 -872.482368745204212
-241.871791809592196 795.095883368013347 -873.931675005578313
-248.320732592188534 789.494196540715279 -870.308409354643118
-256.602192809408791 789.740344412587888 -873.207021875391206
-263.232998282506514 789.008045755721128 -874.656328135765307
-270.433183109132983 785.840518741179608 -873.931675005578313
-276.826106405197379 784.342153951066621 -874.656328135765307
-283.028629217530920 778.460146122807828 -871.033062484830111
-290.577112585707994 780.087866383788196 -875.380981265952414
-297.176395057857746 775.384219060412647 -873.207021875391206
-303.005354668125449 772.384794821338232 -872.482368745204212
-310.271344746770126 769.494775068543390 -872.482368745204212
-316.718637418102901 764.626429911111018 -870.308409354643118
-323.788987482506514 764.653639586292115 -873.207021875391206
-332.354557095582152 764.728118519450618 -876.830287526326515
-213.356495273121823 480.560260206325381 -552.910338332716606
-214.735054910193611 471.629276804090921 -544.939153900659107
-217.270686244079485 467.428604601387065 -542.040541379910906
-225.518872816458241 473.447957128659311 -551.461032072342505
-226.820550529223937 466.703811377433681 -545.663807030846101
-231.823092357334644 465.779234310280287 -547.113113291220202
-235.889746174384669 462.959693982790839 -546.388460161033208
-242.695148399102749 467.208049129515814 -553.634991462903713
-242.236439489492142 455.772367538740923 -542.765194510098013
-242.198553805122486 447.190370333883550 -534.794010078040401
-247.737919006495531 447.299191916515383 -537.692622598788603
-250.566115987625977 444.139310578623054 -536.243316338414502
284.230863721514709 777.959267108007111 -887.574332002055030
275.517789556755304 776.745481451746969 -883.187638433675829
269.631830450153416 779.530186897833119 -883.918754028405715
262.923866812336257 783.977286057407355 -886.112100812595259
254.469347343954297 783.176121036219342 -882.456522838945943
249.750588807118675 789.704025924652001 -887.574332002055030
241.099308625577720 788.108316602619766 -883.187638433675829
235.291058787865921 791.285489460191116 -884.649869623135601
227.823029196151310 793.467879339585465 -884.649869623135601
221.767311939869444 795.889923525613312 -885.380985217865373
214.787263625616106 799.921393985262739 -887.574332002055030
207.124177672570426 796.301375889482415 -881.725407244216058
200.437697141346916 801.527442187300039 -885.380985217865373
192.556150902842262 802.054091085104346 -883.918754028405715
187.021227325184753 806.864837318424293 -887.574332002055030
178.669597022337996 805.261331107328374 -883.918754028405715
172.054549216533587 805.305356615049732 -882.456522838945943
165.138460237119176 810.233690822593758 -886.112100812595259
158.114880653053177 808.157886687414361 -882.456522838945943
150.865308654968516 811.624461694083266 -884.649869623135601
144.247417305204578 811.440865324593346 -883.187638433675829
137.158844434610074 816.128397316055157 -886.843216407325144
129.247581797345049 816.037115341073559 -885.380985217865373
122.327359349112072 813.653687618199456 -881.725407244216058
115.033811685255301 817.472831563796149 -884.649869623135601
108.340632396795428 816.322113305072435 -882.456522838945943
100.892426425009646 819.338346756602959 -884.649869623135601
94.064005418782230 816.716609948392829 -880.994291649486286
86.649249740266171 820.280771319381756 -883.918754028405715
80.204173394468910 820.936006548001842 -883.918754028405715
72.583459848612861 823.014673241642072 -885.380985217865373
64.984207490527197 825.702644992695809 -887.574332002055030
58.063546842728634 820.062608956817598 -880.994291649486286
50.582791127258730 824.659258273632645 -885.380985217865373
44.031599252411439 823.668534389984984 -883.918754028405715
36.146875926775309 821.320559490479582 -880.994291649486286
29.843050671092048 825.669972411062417 -885.380985217865373
22.005435040648582 823.868530863158185 -883.187638433675829
15.559893386520917 825.380214139864961 -884.649869623135601
7.748142270604285 822.079086446294696 -880.994291649486286
0.000000000000050 823.480106195041571 -882.456522838945943
-6.462172785654159 822.772475562296336 -881.725407244216058
-14.180855148246744 820.628574916938078 -879.532060460026514
-20.694133664371019 823.220042352515861 -882.456522838945943
-28.381048928832897 820.942907237581494 -880.263176054756400
-34.972411447992052 824.102886000518311 -883.918754028405715
-42.560981691519743 820.329996842397122 -880.263176054756400
-49.043159219035559 820.651464761281204 -880.994291649486286
-56.775324405553569 820.152803213928109 -880.994291649486286
-64.288330474565939 816.860689156695003 -878.069829270566743
-70.996236485975302 819.729126373370150 -881.725407244216058
-78.457643638796654 816.307109768443411 -878.800944865296628
-85.007627638940107 817.022915299927490 -880.263176054756400
-92.550004420948326 814.829672990339986 -878.800944865296628
-99.029059874194786 814.754932432675446 -879.532060460026514
-107.058223487178751 816.491287205666595 -882.456522838945943
-113.279547359391728 814.273788250040184 -880.994291649486286
-120.848379918469661 812.495175341413528 -880.263176054756400
-128.287029992079994 809.972429925656797 -878.800944865296628
-135.092584779716418 811.631874532756569 -881.725407244216058
-142.380857403450079 808.306900915734332 -879.532060460026514
-148.601200043698583 806.492766644211429 -878.800944865296628
-156.585341985047592 807.065727655713204 -880.994291649486286
-162.378316380706877 803.136138705091980 -878.069829270566743
-170.647867715740148 804.907206741306595 -881.725407244216058
-176.670792882066479 802.209556054036966 -880.263176054756400
-184.376490970888227 801.173743739946872 -880.994291649486286
-191.600537250718673 798.073673759619965 -879.532060460026514
-197.533670713849205 795.219984569722897 -878.069829270566743
-205.360973253709602 794.644087178171503 -879.532060460026514
-211.419805319059719 792.347502818500061 -878.800944865296628
-219.606383663718219 792.949772983235789 -881.725407244216058
-224.891093411483183 787.920282153559810 -878.069829270566743
-232.500397072266594 786.420030686591986 -878.800944865296628
-238.669691190343343 784.569740565469488 -878.800944865296628
-246.053377309766574 782.285520010641335 -878.800944865296628
-254.047691424577295 781.878397554800586 -880.994291649486286
-259.316981224619440 777.270273568536822 -878.069829270566743
-267.074970414406494 776.082028397181830 -879.532060460026514
-272.480802519543658 772.030435762692832 -877.338713675836857
-279.977929249607257 770.069304710854908 -878.069829270566743
-286.731790049350934 769.764653291568038 -880.263176054756400
-293.729644704299062 766.391055822565363 -879.532060460026514
-299.739744784686366 764.060494999807815 -879.532060460026514
-306.162021329157085 759.303363736308370 -877.338713675836857
-314.871106370209588 760.166095398381572 -881.725407244216058
-319.767545886778294 755.156683014464875 -878.800944865296628
-326.598483995711831 751.483735803018249 -878.069829270566743
-333.321023822246616 750.766165966529456 -880.263176054756400
-338.968373555705909 744.486776723046887 -876.607598081107085
-214.245002523683581 460.919253782653129 -544.681118073748735
-222.687018536249496 467.502842171730379 -554.916736399966794
